0 1 2 3 4 5 6 7 8 9 10 11 12 13 14 15 16 17 18 19 20 21 22 23 24 25 26 27 28 29 30 31 32 33 34 34.9857 34.1321 33.2866 32.45 31.6228 30.8058 30 29.2062 28.4253 27.6586 26.9072 26.1725 25.4558 24.7588 24.0832 23.4307 22.8035 21.9545 21.095 20.2485 19.4165 18.6011 17.8045 17.0294 16.2788 15.5563 14.8661 14.2127 13.6015 13.0384 12.53 12.083 11.7047 11.4018 11.1803 11.0454 11 11 11.0454 11.1803 11.4018 11.7047 12.083 12.0416 11.0454 10.0499 9.05539 8.06226 7.07107 6.08276 5.09902 4.12311 3.16228 2.23607 1.41421 1 1 1 0 0 0 1 1 0 0 0 0 0 0 0 0 0 1 1.41421 2.23607 2.82843 3 3 3.16228 2.82843 2.23607 1.41421 1 1 0 0 0 1 1 1.41421 2.23607 2.82843 3.60555 4.24264 5 5 5.09902 5.38516 5.83095 6 6 6 6 6 6.08276 6.32456 6.08276 6 6 6.08276 6.32456 6.7082 7.2111 7.81025 8.48528 8.48528 7.81025 7.2111 6.7082 6.32456 6.08276 5.83095 5.38516 5 4.47214 4.12311 4 4 4 4 4 4.12311 4.47214 5 5.65685 6.40312 7 7 6 5 4 3 2 1 0 0 0 1 2 2.23607 2.82843 3.60555 4.47214 5.38516 6.32456 7.28011 8.24621 9.21954 8.94427 8.544 8.24621 8.06226 8 8 8.06226 8.24621 8.544 8.94427 8.60233 8.06226 7.61577 7.2111 6.7082 6.32456 6.08276 6 6 6.08276 6 6 6 6.08276 6 5.65685 5 4.47214 4.12311 4 4 4.12311 4.47214 4.12311 4 3.60555 3.16228 3 3 2.23607 1.41421 1 1 1 1.41421 2 2.23607 2.82843 3.60555 3.16228 3 2.82843 2.23607 2 2 2 2.23607 2.82843 3.60555 4.12311 4.47214 5 5.65685 6.40312 7.2111 8.06226 8.94427 9.84886 10.7703 11.7047 12.6491 13 12.3693 11.4018 10.4403 9.48683 8.544 7.61577 6.7082 5.83095 5 4 3 2 1 0 0 0 0 1 1 1 1 1 0 1 1.41421 1 1 1.41421 1 1 1.41421 1.41421 1 1 0 0 1 0 0 1 2 3 4 4.47214 3.60555 2.82843 2.23607 2 2 2.23607 2.82843 3 3 3 3 3 3.16228 3.60555 4.24264 5 5.83095 6.08276 5.09902 4.12311 3.16228 2.23607 1.41421 1 1 1 1.41421 2.23607 3.16228 4.12311 5.09902 6.08276 7.07107 6.7082 6.32456 5.83095 5.38516 5.09902 5 5 5.09902 5.38516 5.83095 6.32456 6.08276 6 6 6 6.08276 6.08276 6 6 6 6.08276 6.32456 6.7082 7 7 7 7 6.7082 6.32456 6.08276 6 6 6.08276 6.32456 6.7082 7.07107 7.28011 7.61577 8.06226 8.60233 9.21954 9.48683 9.48683 9.21954 9.05539 9 9 9.05539 9.21954 9.21954 8.60233 8.06226 7.61577 7.28011 7.07107 6.32456 5.38516 4.47214 3.60555 2.82843 2.23607 1.41421 1 1 0 0 0 0 0 0 0 0 0 0 1 2 2.23607 2 2 2.23607 2.82843 3.60555 4.24264 5 5.83095 6.32456 6.40312 5.65685 5 4.47214 4.12311 4 4 4.12311 4.47214 5 5.65685 6.40312 7 7 7 6.7082 6.32456 6.08276 6 6 5.65685 5 4.47214 3.60555 2.82843 2.23607 2 1.41421 1 0 0 1 0 0 1 0 1 2 2.23607 2.82843 3.60555 4.47214 5.38516 6.32456 7.07107 7.28011 7.61577 8.06226 8.60233 9.21954 9.8995 10.6301 11.4018 12.2066 12.0416 11.0454 10.0499 9.05539 8.06226 7.07107 6.08276 5.09902 4.12311 3.16228 2.23607 1.41421 1 0 0 1 0 0 0 1 2 2.82843 2.23607 1.41421 1 1 1.41421 2.23607 2 1 0
0 1 2 3 4 5 6 7 8 9 10 11 12 13 14 15 16 17 18 19 20 21 22 23 24 25 26 27 28 29 30 31 32 33 34 34.4819 33.6155 32.7567 31.9061 31.0644 30.2324 29.4109 28.6007 27.8029 27.0185 26.2488 25.4951 24.7588 24.0416 23.3452 22.6716 22.0227 21.4009 20.5913 19.7231 18.868 18.0278 17.2047 16.4012 15.6205 14.8661 14.1421 13.4536 12.8062 12.2066 11.6619 11.1803 10.7703 10.4403 10.198 10.0499 10 10 10.0499 10.198 10.4403 10.7703 11.1803 11.6619 11.1803 10.198 9.21954 8.24621 7.28011 6.32456 5.38516 4.47214 3.60555 2.82843 2.23607 2 2 1.41421 1 1 1 1 0 0 0 0 1 0 0 0 1 1 1.41421 2.23607 2.82843 3.60555 4 4 4.12311 3.60555 2.82843 2.23607 2 1.41421 1 0 0 0 0 1 1.41421 2.23607 2.82843 3.60555 4 4 4.12311 4.47214 5 5 5 5 5 5 5.09902 5.38516 5.09902 5 5 5.09902 5.38516 5.83095 6.40312 7.07107 7.81025 7.81025 7.07107 6.40312 5.83095 5.38516 5.09902 5 4.47214 4.12311 3.60555 3.16228 3 3 3 3 3 3.16228 3.60555 4.24264 5 5.83095 6 6 6 5 4 3 2 1 0 0 1 1 1 1.41421 2.23607 3.16228 4.12311 5.09902 6.08276 7.07107 8.06226 8.60233 8.06226 7.61577 7.28011 7.07107 7 7 7.07107 7.28011 7.61577 8.06226 7.81025 7.2111 6.7082 6.32456 5.83095 5.38516 5.09902 5 5 5.09902 5 5 5 5.09902 5 5 4.24264 3.60555 3.16228 3 3 3.16228 3.60555 3.16228 3 2.82843 2.23607 2 2 2 1 0 0 0 1 1 1.41421 2.23607 2.82843 2.23607 2 2 1.41421 1 1 1 1.41421 2.23607 3 3.16228 3.60555 4.24264 5 5.83095 6.7082 7.61577 8.544 9.48683 10.4403 11.4018 11.7047 12.083 12.1655 11.1803 10.198 9.21954 8.24621 7.28011 6.32456 5.38516 4.47214 3.60555 2.82843 2 1 0 1 0 0 1 1 0 0 0 0 1 2 2 2 1 0 0 1 1.41421 1.41421 1 0 0 1 0 0 1 2 3 4 4.12311 3.16228 2.23607 1.41421 1 1 1.41421 2.23607 2 2 2 2 2 2.23607 2.82843 3.60555 4.47214 5.38516 5.83095 5 4 3 2 1 0 0 0 1 2 3 4 5 6 6.08276 5.83095 5.38516 5 4.47214 4.12311 4 4 4.12311 4.47214 5 5.38516 5.09902 5 5 5 5.09902 5.09902 5 5 5 5.09902 5.38516 5.83095 6 6 6 6 5.83095 5.38516 5.09902 5 5 5.09902 5.38516 5.83095 6.08276 6.32456 6.7082 7.2111 7.81025 8.24621 8.544 8.544 8.24621 8.06226 8 8 8.06226 8.24621 8.48528 7.81025 7.2111 6.7082 6.32456 6.08276 6 5.65685 5 4 3 2 1 0 0 0 0 0 0 0 0 0 0 0 0 1 2 3 3 3 3.16228 3.60555 4.24264 5 5.65685 6.40312 7.2111 7.07107 6.40312 5.83095 5.38516 5.09902 5 5 5.09902 5.38516 5.83095 6.32456 6.08276 6 6 6 5.83095 5.38516 5.09902 5 5 5 4.24264 3.60555 3.16228 2.23607 1.41421 1 1 0 0 1 1.41421 1 1 1 0 1 1 1.41421 2.23607 3.16228 4.12311 5.09902 6.08276 7.07107 8.06226 8.544 8.94427 9.43398 10 10.6301 11.3137 12.0416 12.8062 12.1655 11.1803 10.198 9.21954 8.24621 7.28011 6.32456 5.38516 4.47214 3.60555 2.82843 2 1 0 0 0 0 0 0 1 1.41421 2.23607 2 1 0 0 1 2 2 1 0
0 1 2 3 4 5 6 7 8 9 10 11 12 13 14 15 16 17 18 19 20 21 22 23 24 25 26 27 28 29 30 31 32 33 34 34 33.121 32.249 31.3847 30.5287 29.6816 28.8444 28.0179 27.2029 26.4008 25.6125 24.8395 24.0832 23.3452 22.6274 21.9317 21.2603 20.6155 20 19.2354 18.3576 17.4929 16.6433 15.8114 15 14.2127 13.4536 12.7279 12.0416 11.4018 10.8167 10.2956 9.84886 9.48683 9.21954 9.05539 9 9 9.05539 9.21954 9.48683 9.84886 10.2956 10.8167 11.4018 10.4403 9.48683 8.544 7.61577 6.7082 5.83095 5 4.24264 3.60555 3.16228 3 2.82843 2.23607 2 1.41421 1 0 0 0 0 1 0 0 1 1 1.41421 2 2.23607 2.82843 3.60555 4.24264 5 5 5 4.24264 3.60555 3.16228 2.82843 2.23607 1.41421 1 1 1 0 0 1 1.41421 2.23607 2.82843 3 3 3.16228 3.60555 4 4 4 4 4 4 4.12311 4.47214 4.12311 4 4 4.12311 4.47214 5 5.65685 6.40312 7.2111 7.2111 6.40312 5.65685 5 4.47214 4.12311 4 3.60555 3.16228 2.82843 2.23607 2 2 2 2 2 2.23607 2.82843 3.60555 4.47214 5 5 5 5 5 4 3 2 1 0 0 1 0 0 1 2 3 4 5 6 7 8 7.81025 7.2111 6.7082 6.32456 6.08276 6 6 6.08276 6.32456 6.7082 7.2111 7.07107 6.40312 5.83095 5.38516 5 4.47214 4.12311 4 4 4.12311 4 4 4 4.12311 4 4 3.60555 2.82843 2.23607 2 2 2.23607 2.82843 2.23607 2 2 1.41421 1 1 1.41421 1 0 0 0 0 0 1 1.41421 2.23607 1.41421 1 1 1 0 0 0 1 2 2 2.23607 2.82843 3.60555 4.47214 5.38516 6.32456 7.28011 8.24621 9.21954 10.198 10.4403 10.7703 11.1803 11.6619 11.0454 10.0499 9.05539 8.06226 7.07107 6.08276 5.09902 4.12311 3.16228 2.23607 1.41421 1 0 1 0 1 1.41421 1 0 0 1 1 1.41421 2 2.23607 2 1 0 0 0 1 1 0 0 1 1.41421 1 1 1.41421 2.23607 3.16228 4.12311 4 3 2 1 0 0 1 1.41421 1 1 1 1 1 1.41421 2.23607 3.16228 4.12311 5.09902 5.38516 4.47214 3.60555 2.82843 2 1 0 0 0 1 2 3 4 5 5.38516 5.09902 5 4.47214 4.12311 3.60555 3.16228 3 3 3.16228 3.60555 4.24264 4.47214 4.12311 4 4 4 4.12311 4.12311 4 4 4 4.12311 4.47214 5 5 5 5 5 5 4.47214 4.12311 4 4 4.12311 4.47214 5 5.09902 5.38516 5.83095 6.40312 7.07107 7.28011 7.61577 7.61577 7.28011 7.07107 7 7 7.07107 7.28011 7.61577 7.07107 6.40312 5.83095 5.38516 5.09902 5 5 4.24264 3.60555 3 2 1 0 0 0 0 0 0 0 0 0 0 1 1 1.41421 2.23607 3.16228 4 4 4.12311 4.47214 5 5.65685 6.40312 7.07107 7.81025 7.81025 7.2111 6.7082 6.32456 6.08276 6 6 6.08276 6.32456 5.83095 5.38516 5.09902 5 5 5 5 4.47214 4.12311 4 4 4 3.60555 2.82843 2.23607 2 1 0 0 0 1 1.41421 2.23607 2 2 1 0 0 0 1 2 3 4 5 5.83095 6.7082 7.61577 8.544 9.48683 10.2956 10.8167 11.4018 12.0416 12.7279 13.3417 12.3693 11.4018 10.4403 9.48683 8.544 7.61577 6.7082 5.83095 5 4.12311 3.16228 2.23607 1.41421 1 1 1 1 1 0 0 1 2 2 1 0 0 1 2 2 1 0
0 1 2 3 4 5 6 7 8 9 10 11 12 13 14 15 16 17 18 19 20 21 22 23 24 25 26 27 28 29 30 31 32 33 34 33.541 32.6497 31.7648 30.8869 30.0167 29.1548 28.3019 27.4591 26.6271 25.807 25 24.2074 23.4307 22.6716 21.9317 21.2132 20.5183 19.8494 19.2094 18.6011 17.8885 17 16.1245 15.2643 14.4222 13.6015 12.8062 12.0416 11.3137 10.6301 10 9.43398 8.94427 8.544 8.24621 8.06226 8 8 8.06226 8.24621 8.544 8.94427 9.43398 10 10.6301 10.7703 9.84886 8.94427 8.06226 7.2111 6.40312 5.65685 5 4.47214 4.12311 4 3.60555 3 2 1 0 0 0 0 0 0 0 1 1.41421 2 2.23607 2.82843 3.16228 3.60555 4.24264 5 5.65685 6 5.65685 5 4.47214 4.12311 3.60555 2.82843 2.23607 2 2 1.41421 1 0 0 1 1.41421 2 2 2 2.23607 2.82843 3 3 3 3 3 3 3.16228 3.60555 3.16228 3 3 3.16228 3.60555 4.24264 5 5.83095 6.7082 6.32456 5.83095 5 4.24264 3.60555 3.16228 3 2.82843 2.23607 2 1.41421 1 1 1 1 1 1.41421 2.23607 3.16228 4 4 4 4 4 4 4 3.16228 2.23607 1.41421 1 1 1 0 0 1 2 3 4 5 6 7 7.81025 7.07107 6.40312 5.83095 5.38516 5.09902 5 5 5.09902 5.38516 5.83095 6.40312 6.40312 5.65685 5 4.47214 4.12311 3.60555 3.16228 3 3 3.16228 3 3 3 3.16228 3 3 3 2.23607 1.41421 1 1 1.41421 2.23607 1.41421 1 1 1 0 0 1 1.41421 1 1 0 0 0 0 1 1.41421 1 0 0 0 0 0 0 1 1 1 1.41421 2.23607 3.16228 4.12311 5.09902 6.08276 7.07107 8.06226 9.05539 9.21954 9.48683 9.84886 10.2956 10.8167 11 10 9 8 7 6 5 4 3 2 1 0 0 1 0 1 2 1 0 1 1 1 1 1 1.41421 2.23607 1.41421 1 0 0 1 1 0 0 1 2 2 2 2.23607 2.82843 3 3.16228 3.60555 3 2 1 0 0 1 1 0 0 0 0 0 1 2 3 4 5 4.47214 4.12311 3.16228 2.23607 1.41421 1 0 0 0 1 2 3 3.60555 4.24264 4.47214 4.12311 4 3.60555 3.16228 2.82843 2.23607 2 2 2.23607 2.82843 3.60555 3.60555 3.16228 3 3 3 3.16228 3.16228 3 3 3 3.16228 3.60555 4 4 4 4 4 4.12311 3.60555 3.16228 3 3 3.16228 3.60555 4 4.12311 4.47214 5 5.65685 6.08276 6.32456 6.7082 6.7082 6.32456 6.08276 6 6 6.08276 6.32456 6.7082 6.40312 5.65685 5 4.47214 4.12311 4 4 3.60555 2.82843 2.23607 2 1 0 0 0 0 0 0 0 1 1 1 1.41421 2 2.23607 2.82843 3.60555 4.47214 5 5.09902 5.38516 5.83095 6.40312 7.07107 7.81025 8.06226 7.61577 7.28011 7.07107 6.7082 6.32456 6.08276 6 5.83095 5.38516 5 4.47214 4.12311 4 4 4 4 3.60555 3.16228 3 3 3 2.82843 2.23607 1.41421 1 1 0 1 1 1.41421 2.23607 2.82843 3 2.23607 1.41421 1 0 0 1 2 2.82843 3.60555 4.47214 5.38516 6.32456 7.28011 8.24621 9.21954 10.198 11.1803 12.1655 12.8062 13.4536 13.6015 12.6491 11.7047 10.7703 9.84886 8.94427 8.06226 7.2111 6.32456 5.38516 4.47214 3.60555 2.82843 2.23607 2 2 2 2 1 0 0 1 2 2.23607 1.41421 1 1 1.41421 2.23607 2 1 0
0 1 2 3 4 5 6 7 8 9 10 11 12 13 14 15 16 17 18 19 20 21 22 23 24 25 26 27 28 29 30 31 32 33 34 33.1059 32.2025 31.305 30.4138 29.5296 28.6531 27.7849 26.9258 26.0768 25.2389 24.4131 23.6008 22.8035 22.0227 21.2603 20.5183 19.799 19.105 18.4391 17.8045 17.2047 16.5529 15.6525 14.7648 13.8924 13.0384 12.2066 11.4018 10.6301 9.8995 9.21954 8.60233 8.06226 7.61577 7.28011 7.07107 7 7 7.07107 7.28011 7.61577 8.06226 8.60233 9.21954 9.8995 10.4403 10.198 9.43398 8.60233 7.81025 7.07107 6.40312 5.83095 5.38516 5.09902 5 4 3 2 1 0 0 0 0 0 0 1 1 1.41421 2.23607 3.16228 3.60555 4.12311 4.47214 5 5.65685 6.40312 7 6.40312 5.83095 5.38516 5 4.24264 3.60555 3.16228 3 2.82843 2.23607 1.41421 1 0 0 1 1 1 1 1.41421 2.23607 2 2 2 2 2 2 2.23607 2.82843 2.23607 2 2 2.23607 2.82843 3.60555 4.47214 5.38516 5.83095 5.38516 5.09902 4.47214 3.60555 2.82843 2.23607 2 2 1.41421 1 1 0 0 0 0 0 1 2 3 3 3 3 3 3 3 3 3 2.82843 2.23607 2 2 1.41421 1 1 1.41421 2.23607 3.16228 4.12311 5.09902 6.08276 7.07107 7.2111 6.40312 5.65685 5 4.47214 4.12311 4 4 4.12311 4.47214 5 5.65685 5.83095 5 4.24264 3.60555 3.16228 2.82843 2.23607 2 2 2.23607 2 2 2 2.23607 2 2 2 2 1 0 0 1 1.41421 1 0 0 0 0 0 0 1 1 1 0 0 0 0 0 1 0 0 0 0 0 0 0 0 0 0 1 2 3 4 5 6 7 8 8.06226 8.24621 8.544 8.94427 9.43398 10 10.2956 9.84886 9 8 7 6 5 4 3 2 1 0 0 0 0 1 1 1 0 0 0 0 0 0 1 1.41421 1 1 1 1 1.41421 1 0 0 1 2 2 2 2 2 2 2.23607 2.82843 3 2.23607 1.41421 1 1 1.41421 1 0 1 0 0 0 1 2 3 4 4.24264 3.60555 3.16228 3 2 1 0 0 0 1 1.41421 2 2.23607 2.82843 3.60555 3.60555 3.16228 3 2.82843 2.23607 2 1.41421 1 1 1.41421 2.23607 3 2.82843 2.23607 2 2 2 2.23607 2.23607 2 2 2 2.23607 2.82843 3 3 3 3 3 3.16228 2.82843 2.23607 2 2 2.23607 2.82843 3 3.16228 3.60555 4.24264 5 5.09902 5.38516 5.83095 5.83095 5.38516 5.09902 5 5 5.09902 5.38516 5.83095 5.65685 5 4.24264 3.60555 3.16228 3 3 3.16228 2.23607 1.41421 1 1 1 1 1 0 0 0 1 1.41421 2 2 2.23607 2.82843 3.16228 3.60555 4.24264 5 5.83095 6.08276 6.32456 6.7082 7.2111 7.61577 7.28011 7.07107 6.7082 6.32456 6.08276 5.83095 5.38516 5.09902 5 5 4.47214 4.12311 3.60555 3.16228 3 3 3 3 2.82843 2.23607 2 2 2 2 1.41421 1 0 0 0 1 2 2.23607 2.82843 3.60555 3.60555 2.82843 2.23607 1.41421 1 0 1 1.41421 2.23607 3.16228 4.12311 5.09902 6.08276 7.07107 8.06226 9.05539 10.0499 11.0454 12.0416 13.0384 14.0357 13.9284 13 12.083 11.1803 10.2956 9.43398 8.544 7.61577 6.7082 5.83095 5 4.24264 3.60555 3.16228 3 3 3 2 1 0 0 1 2 2.82843 2.23607 2 2 2.23607 2.82843 2 1 0
0 1 2 3 4 5 6 7 8 9 10 11 12 13 14 15 16 17 18 19 20 21 22 23 24 25 26 27 28 29 30 31 32 33 33.6155 32.6956 31.7805 30.8707 29.9666 29.0689 28.178 27.2947 26.4197 25.5539 24.6982 23.8537 23.0217 22.2036 21.4009 20.6155 19.8494 19.105 18.3848 17.6918 17.0294 16.4012 15.8114 15.2315 14.3178 13.4164 12.53 11.6619 10.8167 10 9.21954 8.48528 7.81025 7.2111 6.7082 6.32456 6.08276 6 6 6.08276 6.32456 6.7082 7.2111 7.81025 8.48528 9.21954 9.48683 9.21954 9.05539 9 8.48528 7.81025 7.2111 6.7082 6.32456 6 5 4 3 2 1 0 0 0 1 0 0 0 0 1 2 3 4 5 5.38516 5.83095 6.40312 7.07107 7.81025 7.2111 6.7082 6.32456 5.65685 5 4.47214 4.12311 4 3.60555 2.82843 2.23607 1.41421 1 0 0 0 0 0 1 1.41421 1 1 1 1 1 1 1.41421 2.23607 1.41421 1 1 1.41421 2.23607 3.16228 4.12311 5.09902 5 4.47214 4.12311 4 3.16228 2.23607 1.41421 1 1 1 0 0 0 0 0 0 0 1 2 2 2 2 2 2 2 2 2 2 2.23607 2.82843 3 2.82843 2.23607 2 2 2.23607 2.82843 3.60555 4.47214 5.38516 6.32456 7.28011 6.7082 5.83095 5 4.24264 3.60555 3.16228 3 3 3.16228 3.60555 4.24264 5 5.09902 4.47214 3.60555 2.82843 2.23607 2 1.41421 1 1 1.41421 1 1 1 1.41421 1 1 1 1.41421 1 0 0 0 1 0 0 1 1 1 1 0 0 0 0 1 0 0 0 0 1 0 0 1 1 0 0 0 0 0 0 1 2 3 4 5 6 7 7 7.07107 7.28011 7.61577 8.06226 8.60233 9.21954 9.43398 8.94427 8.544 8.06226 7.07107 6.08276 5.09902 4.12311 3.16228 2.23607 1.41421 1 0 0 0 0 0 1 0 0 0 0 0 0 1 1 0 0 0 1 1.41421 1 0 0 1 1 1 1 1 1 1 1.41421 2 2 2 2 2 2 2 1 0 0 0 0 1 1.41421 2.23607 3.16228 4.12311 3.60555 2.82843 2.23607 2 2 1 0 0 0 1 1 1 1.41421 2.23607 2.82843 2.82843 2.23607 2 2 1.41421 1 1 0 0 1 2 2 2.23607 1.41421 1 1 1 1.41421 1.41421 1 1 1 1.41421 2 2 2 2 2 2 2.23607 2.23607 1.41421 1 1 1.41421 2 2 2.23607 2.82843 3.60555 4 4.12311 4.47214 5 5 4.47214 4.12311 4 4 4.12311 4.47214 5 5 4.24264 3.60555 2.82843 2.23607 2 2 2.23607 2 1 0 0 0 0 0 0 0 1 1.41421 2.23607 2.82843 3 3.16228 3.60555 4.12311 4.47214 5 5.65685 6.40312 7.07107 7.28011 7.61577 7.2111 6.7082 6.32456 6.08276 5.83095 5.38516 5.09902 5 4.47214 4.12311 4 4 3.60555 3.16228 2.82843 2.23607 2 2 2 2 2 1.41421 1 1 1 1 1 0 0 0 1 1.41421 2.23607 3.16228 3.60555 4.24264 4.24264 3.60555 2.82843 2 1 0 0 1 2 3 4 5 6 7 8 9 10 11 12 13 14 14.3178 13.4164 12.53 11.6619 10.7703 9.84886 8.94427 8.06226 7.2111 6.40312 5.65685 5 4.47214 4.12311 3.60555 2.82843 2.23607 2 1 0 0 1 2 3 3.16228 3 3 3.16228 3 2 1 0
0 1 2 3 4 5 6 7 8 9 10 11 12 13 14 15 16 17 18 19 20 21 22 23 24 25 26 27 28 29 30 31 32 33 33.121 32.249 31.3847 30.4631 29.5466 28.6356 27.7308 26.8328 25.9422 25.0599 24.1868 23.3238 22.4722 21.6333 20.8087 20 19.2094 18.4391 17.6918 16.9706 16.2788 15.6205 15 14.4222 13.8924 13 12.083 11.1803 10.2956 9.43398 8.60233 7.81025 7.07107 6.40312 5.83095 5.38516 5.09902 5 5 5.09902 5.38516 5.83095 6.40312 7.07107 7.81025 8.60233 8.544 8.24621 8.06226 8 8 8 8 7.61577 7.07107 6.08276 5.09902 4.12311 3.16228 2.23607 1.41421 1 1 1 0 0 0 0 0 1 2 3 4 5 6 6.7082 7.2111 7.81025 8.48528 8.06226 7.61577 7.07107 6.40312 5.83095 5.38516 5.09902 5 4.24264 3.60555 2.82843 2 1 0 0 0 0 0 1 1 0 0 0 0 0 0 1 1.41421 1 0 0 1 2 3 4 5 4.24264 3.60555 3.16228 3 3 2 1 0 0 0 0 1 1 1 0 0 1 1 1 1 1 1 1 1 1 1 1 1 1.41421 2 2.23607 2.82843 3.16228 3 3 3.16228 3.60555 4.24264 5 5.83095 6.7082 7.07107 6.32456 5.38516 4.47214 3.60555 2.82843 2.23607 2 2 2.23607 2.82843 3.60555 4.47214 4.12311 4 3.16228 2.23607 1.41421 1 1 0 0 1 0 0 0 1 0 0 0 1 1 0 0 0 0 0 1 1.41421 2 2 1.41421 1 1 0 0 0 1 0 1 0 1 0 0 1 1 0 1 0 0 0 1 1.41421 2.23607 3.16228 4.12311 5.09902 6 6 6 6.08276 6.32456 6.7082 7.2111 7.81025 8.48528 8.60233 8.06226 7.61577 7.28011 7.07107 6.32456 5.38516 4.47214 3.60555 2.82843 2.23607 1.41421 1 1 1 0 0 1 1 0 0 0 0 0 1 1 0 0 0 1 1 0 0 0 0 0 0 0 0 0 0 1 1 1 1 1 1 1.41421 2 1.41421 1 1 1 1 1.41421 2.23607 2.82843 3.60555 4 3.16228 2.23607 1.41421 1 1 1 0 0 0 1 0 0 1 1.41421 2.23607 2.23607 1.41421 1 1 1 0 0 0 0 1 1 1 1.41421 1 0 0 0 1 1 0 0 0 1 1 1 1 1 1 1 1.41421 1.41421 1 0 0 1 1 1 1.41421 2.23607 2.82843 3 3.16228 3.60555 4 4.12311 3.60555 3.16228 3 3 3.16228 3.60555 4 4 3.60555 2.82843 2.23607 1.41421 1 1 1.41421 2 1 0 0 0 0 0 0 1 1.41421 2.23607 2.82843 3.60555 4 4.12311 4.47214 5 5.38516 5.83095 6.40312 7.07107 7.81025 7.81025 7.07107 6.40312 5.83095 5.38516 5.09902 5 4.47214 4.12311 4 3.60555 3.16228 3 3 2.82843 2.23607 2 1.41421 1 1 1 1 1 1 0 0 0 0 0 0 1 1 1.41421 2.23607 2.82843 3.60555 4.47214 5 5 4.12311 3.16228 2.23607 1.41421 1 0 1 2 3 4 5 6 7 8 9 10 11 12 13 14 14.7648 13.8924 13 12.083 11.1803 10.2956 9.43398 8.60233 7.81025 7.07107 6.32456 5.38516 4.47214 3.60555 2.82843 2.23607 1.41421 1 1 0 0 1 2 3 4 4 4 4 3 2 1 0
0 1 2 3 4 5 6 7 8 9 10 11 12 13 14 15 16 17 18 19 20 21 22 23 24 25 26 27 28 29 30 31 32 33 32.6497 31.7648 30.8869 30.0167 29.1548 28.2312 27.313 26.4008 25.4951 24.5967 23.7065 22.8254 21.9545 21.095 20.2485 19.4165 18.6011 17.8045 17.0294 16.2788 15.5563 14.8661 14.2127 13.6015 13.0384 12.53 11.7047 10.7703 9.84886 8.94427 8.06226 7.2111 6.40312 5.65685 5 4.47214 4.12311 4 4 4.12311 4.47214 5 5.65685 6.40312 7.2111 8 7.61577 7.28011 7.07107 7 7 7 7 7 7.07107 6.08276 5.09902 4.12311 3.16228 2.23607 1.41421 1 1 1 0 1 1 1 1 1.41421 2.23607 3.16228 4.12311 5.09902 6.08276 7.07107 8.06226 8.60233 9.21954 8.94427 8.48528 7.81025 7.2111 6.7082 6.32456 6.08276 5.65685 5 4.12311 3.16228 2.23607 1.41421 1 1 1 0 0 1 1 0 0 0 0 0 0 1 1 0 0 0 1 2 3 3.60555 4 3.60555 2.82843 2.23607 2 2 2 1 0 1 1 1 1.41421 2 1 0 0 0 0 0 0 0 0 0 0 0 0 0 0 1 1 1.41421 2.23607 3.16228 4 4 4.12311 4.47214 5 5.65685 6.40312 7.2111 6.40312 5.65685 5 4.12311 3.16228 2.23607 1.41421 1 1 1.41421 2.23607 3.16228 3.60555 3.16228 3 3 2 1 0 0 0 0 1 0 0 0 0 0 0 0 1 1 0 0 0 0 0 1 1 1.41421 1 1 1.41421 1.41421 1 1 0 0 0 0 0 1 0 1 1.41421 1 0 0 1 1 1 1.41421 2.23607 2.82843 3.60555 4.47214 5.09902 5 5 5 5.09902 5.38516 5.83095 6.40312 7.07107 7.81025 7.81025 7.2111 6.7082 6.32456 6.08276 6 5.83095 5 4.24264 3.60555 2.82843 2.23607 2 2 1.41421 1 1 1 0 0 0 0 0 0 1 1.41421 1 1 1 1 0 0 0 0 0 0 0 0 1 0 0 0 0 0 0 0 0 1 1 1.41421 2 2 2 2 2.23607 2.82843 3 3 3 2.82843 2 1 0 0 1 0 1 0 1 0 0 0 1 2 1.41421 1 0 0 0 0 0 0 0 0 0 0 1 1 0 0 0 1 0 0 0 0 0 0 0 0 0 0 0 1 1 0 0 0 0 0 0 1 1.41421 2 2 2.23607 2.82843 3 3.16228 2.82843 2.23607 2 2 2.23607 2.82843 3 3 3 2.23607 1.41421 1 0 0 1 1 1 0 0 1 1 1 1 1.41421 2.23607 2.82843 3.60555 4.24264 5 5.09902 5.38516 5.83095 6.32456 6.7082 7.2111 7.81025 7.61577 7.07107 6.40312 5.65685 5 4.47214 4.12311 4 3.60555 3.16228 3 2.82843 2.23607 2 2 2 1.41421 1 1 0 0 0 0 0 0 0 0 1 1 1 1 1.41421 2 2.23607 2.82843 3.60555 4.24264 5 5.83095 5.09902 4.12311 3.16228 2.23607 1.41421 1 0 1 2 3 4 5 6 7 8 9 10 11 12 13 14 15 14.3178 13.4164 12.53 11.6619 10.8167 10 9.05539 8.06226 7.07107 6.08276 5.09902 4.12311 3.16228 2.23607 1.41421 1 0 0 0 0 1 2 3 3.60555 4.24264 5 4 3 2 1 0
0 1 2 3 4 5 6 7 8 9 10 11 12 13 14 15 16 17 18 19 20 21 22 23 24 25 26 27 28 29 30 31 32 33 32.2025 31.305 30.4138 29.5296 28.6531 27.7849 26.9258 26 25.0799 24.1661 23.2594 22.3607 21.4709 20.5913 19.7231 18.868 18.0278 17.2047 16.4012 15.6205 14.8661 14.1421 13.4536 12.8062 12.2066 11.6619 11.1803 10.4403 9.48683 8.544 7.61577 6.7082 5.83095 5 4.24264 3.60555 3.16228 3 3 3.16228 3.60555 4.24264 5 5.83095 6.7082 7 6.7082 6.32456 6.08276 6 6 6 6 6 6.08276 6 5 4 3 2 1 0 0 0 0 0 1 2 2 2.23607 2.82843 3.60555 4.47214 5.38516 6.32456 7.28011 8.24621 9.21954 10 9.84886 9.21954 8.60233 8.06226 7.61577 7.28011 7.07107 6.32456 5.38516 4.47214 3.60555 2.82843 2.23607 2 2 1.41421 1 0 0 1 0 0 0 0 0 1 1.41421 1 0 0 0 1 2 2.23607 2.82843 3 2.82843 2.23607 1.41421 1 1 1 1 0 0 1 1 1 1.41421 1.41421 1 1 1 1 0 0 0 0 1 1 0 0 0 0 0 0 1 2 2.82843 3.60555 4.24264 5 5.38516 5.83095 6.40312 7.07107 6.7082 5.83095 5 4.24264 3.60555 2.82843 2 1 0 0 1 2 3 2.82843 2.23607 2 2 2 1 0 0 1 0 1 0 1 0 0 0 1 0 0 0 0 0 0 0 0 0 0 1 0 0 1 2 2 1 0 0 0 1 1 1 0 0 1 1 0 0 1 2 2 2.23607 2.82843 3.60555 4.24264 4.47214 4.12311 4 4 4 4.12311 4.47214 5 5.65685 6.40312 7.2111 7.07107 6.40312 5.83095 5.38516 5.09902 5 5 5.09902 5 4.24264 3.60555 3.16228 3 2.82843 2.23607 2 2 1 0 0 1 0 0 0 1 1 1 1 1 0 0 0 0 0 0 0 0 1 1 1 1 1 1 0 0 0 0 0 0 1 1 1 1 1 1.41421 2 2 2 2 2 1.41421 1 0 0 1 0 1 0 1 0 0 0 1 2 1 0 0 0 0 0 0 0 0 0 0 0 1 0 0 0 0 1 0 0 1 1 1 1 1 0 0 0 0 0 0 0 0 0 0 0 0 0 1 1 1 1.41421 2 2 2.23607 2.23607 1.41421 1 1 1.41421 2 2 2 2 2 1 0 0 0 0 0 0 0 0 1 2 2 2 2.23607 2.82843 3.60555 4.24264 5 5.65685 6.08276 6.32456 6.7082 7.2111 7.61577 7.81025 7.2111 6.7082 6.32456 5.65685 5 4.24264 3.60555 3.16228 3 2.82843 2.23607 2 2 1.41421 1 1 1 1 0 0 0 0 1 1 1 1 1 1 1.41421 2 2 2 2.23607 2.82843 3.16228 3.60555 4.24264 5 5.65685 6 5 4 3 2 1 0 0 1 2 3 4 5 6 7 8 9 10 11 12 13 14 15 14.7648 13.8924 13 12 11 10 9 8 7 6 5 4 3 2 1 0 0 0 0 1 1.41421 2 2.23607 2.82843 3.60555 4.47214 4 3 2 1 0
0 1 2 3 4 5 6 7 8 9 10 11 12 13 14 15 16 17 18 19 20 21 22 23 24 25 26 27 28 29 30 31 32 32.6956 31.7805 30.8707 29.9666 29.0689 28.178 27.2947 26.4197 25.5539 24.6982 23.7697 22.8473 21.9317 21.0238 20.1246 19.2354 18.3576 17.4929 16.6433 15.8114 15 14.2127 13.4536 12.7279 12.0416 11.4018 10.8167 10.2956 9.84886 9.21954 8.24621 7.28011 6.32456 5.38516 4.47214 3.60555 2.82843 2.23607 2 2 2.23607 2.82843 3.60555 4.47214 5.38516 6 6 5.83095 5.38516 5.09902 5 5 5 5 5 5.09902 5.38516 5 4 3 2 1 0 0 1 0 0 1 2 2.23607 2.82843 3.60555 4.24264 5 5.83095 6.7082 7.61577 8.544 9.48683 10.4403 10.6301 10 9.43398 8.94427 8.544 8.24621 7.61577 6.7082 5.83095 5 4.24264 3.60555 3.16228 3 2.82843 2 1 0 0 1 1 1 1 1 1 1.41421 1 1 0 0 0 1 1 1.41421 2.23607 2 2 1.41421 1 0 0 0 0 0 0 0 0 0 1 2 2 2 2 1.41421 1 1 1 1 1.41421 1.41421 1 0 0 0 1 0 1 1.41421 2.23607 2.82843 3.60555 4.24264 5 5.65685 6.32456 6.08276 6 5.38516 4.47214 3.60555 2.82843 2.23607 1.41421 1 0 0 1 2 3 2.23607 1.41421 1 1 1 1 0 1 1 0 1 0 1 1 0 0 0 1 0 0 0 0 0 0 0 0 0 0 0 0 1 2 2.23607 1.41421 1 0 0 0 1 1 0 0 0 0 0 1 1.41421 2.23607 3 3.16228 3.60555 4.24264 4.24264 3.60555 3.16228 3 3 3 3.16228 3.60555 4.24264 5 5.83095 6.7082 6.40312 5.65685 5 4.47214 4.12311 4 4 4.12311 4.47214 5 4.47214 4.12311 4 3.60555 3.16228 3 2 1 0 1 1 0 0 0 0 0 0 0 0 0 0 1 1 1 1 0 0 0 0 0 0 0 0 0 0 0 0 0 0 1 0 0 0 0 1 1 1 1 1 1 1 0 0 0 0 0 0 0 1 0 1 0 1 2 1 0 0 0 0 0 0 0 0 0 1 0 0 0 1 0 0 0 0 1 1.41421 2 2 2 1.41421 1 1 1 1 1 0 0 0 1 1 1 0 0 0 0 0 1 1 1 1.41421 1.41421 1 0 0 1 1 1 1 1 1 1 0 0 0 0 0 0 0 0 1 2 3 3 3.16228 3.60555 4.24264 5 5.65685 6.40312 7.07107 7.28011 7.61577 8 7.81025 7.07107 6.40312 5.83095 5.38516 5 4.24264 3.60555 2.82843 2.23607 2 2 1.41421 1 1 1 0 0 0 0 0 1 1 1 1.41421 2 2 2 2 2 2 2 2.23607 2.82843 3.16228 3.60555 4 4.12311 4.47214 5 5 5.09902 5 4 3 2 1 0 1 1.41421 2.23607 3.16228 4.12311 5.09902 6.08276 7.07107 8.06226 9.05539 10.0499 11.0454 12.0416 13.0384 14.0357 15.0333 15 14 13 12 11 10 9 8 7 6 5 4 3 2 1 0 0 1 0 0 1 1 1.41421 2.23607 3.16228 4.12311 4 3 2 1 0
0 1 2 3 4 5 6 7 8 9 10 11 12 13 14 15 16 17 18 19 20 21 22 23 24 25 26 27 28 29 30 31 32 32.311 31.3847 30.4631 29.5466 28.6356 27.7308 26.8328 25.9422 25.0599 24.1868 23.3238 22.4722 21.5407 20.6155 19.6977 18.7883 17.8885 17 16.1245 15.2643 14.4222 13.6015 12.8062 12.0416 11.3137 10.6301 10 9.43398 8.94427 8.544 8.06226 7.07107 6.08276 5.09902 4.12311 3.16228 2.23607 1.41421 1 1 1.41421 2.23607 3.16228 4.12311 5.09902 5 5 5 4.47214 4.12311 4 4 4 4 4 4.12311 4.47214 5 4 3 2 1 0 0 1 1 1 1 1 1.41421 2.23607 3.16228 4.12311 5.09902 6.08276 7.07107 8.06226 8.94427 9.84886 10.0499 10.198 10.4403 10.2956 9.84886 9.48683 8.94427 8.06226 7.2111 6.40312 5.65685 5 4.47214 4.12311 4 3.16228 2.23607 1.41421 1 0 0 0 1 1 1 1 1 0 0 0 0 0 0 0 1 1.41421 1 1 1 0 0 1 0 0 0 0 0 0 0 1 1 1 1.41421 2.23607 2.23607 2 2 2 2 2.23607 2.23607 1.41421 1 0 0 1 0 0 1 1.41421 2.23607 2.82843 3.60555 4.24264 5 5.38516 5.09902 5 5 4.12311 3.16228 2.23607 1.41421 1 0 0 0 1 2 3 2 1 0 0 0 0 0 1 1 0 0 0 1 1 0 0 0 1 1 0 0 0 0 1 0 0 1 0 0 0 1 2 2.82843 2.23607 1.41421 1 1 0 1 0 0 0 0 1 1 1.41421 2.23607 2.82843 3.60555 4.12311 4 4 3.60555 2.82843 2.23607 2 2 2 2.23607 2.82843 3.60555 4.47214 5.38516 6.32456 5.83095 5 4.24264 3.60555 3.16228 3 3 3.16228 3.60555 4.24264 5 5.09902 5 4.47214 4 3 2 1 0 0 0 0 0 1 1 1 1 1 1 1 1 1.41421 2 2 1.41421 1 0 0 1 0 0 0 1 1 1 1 1 1 1 1 0 0 0 0 0 0 0 0 0 0 0 0 0 0 0 1 0 0 1 0 1 0 1 1.41421 1 0 1 0 0 0 0 0 0 1 1 0 0 0 1 1 1 1 1 1.41421 2.23607 2.82843 3 2.82843 2.23607 2 2 2 2 1.41421 1 1 1 1.41421 2 1.41421 1 0 0 0 0 1 0 0 1 1 0 0 0 0 0 0 0 0 0 0 0 0 0 0 1 1 1 1 1.41421 2.23607 3.16228 4 4.12311 4.47214 5 5.65685 6.40312 7 7 7 7 7 7 6.40312 5.65685 5 4.47214 4.12311 3.60555 2.82843 2.23607 1.41421 1 1 1 0 0 0 0 1 1 1 1 1.41421 2 2 2.23607 2.82843 3 2.23607 1.41421 1 1 1 1.41421 2 2.23607 2.82843 3 3.16228 3.60555 4 4 4.12311 4 3.60555 2.82843 2 1 0 0 1 2 3 4 5 6 7 8 9 10 11 12 13 14 15 15.0333 14.0357 13.0384 12.0416 11.0454 10.0499 9.05539 8.06226 7.07107 6.08276 5.09902 4.12311 3.16228 2.23607 1.41421 1 1 1 0 0 0 0 1 2 3 4 4 3 2 1 0
0 1 2 3 4 5 6 7 8 9 10 11 12 13 14 15 16 17 18 19 20 21 22 23 24 25 26 27 28 29 30 31 32 31.9531 31.0161 30.0832 29.1548 28.2312 27.313 26.4008 25.4951 24.5967 23.7065 22.8254 21.9545 21.095 20.2485 19.3132 18.3848 17.4642 16.5529 15.6525 14.7648 13.8924 13.0384 12.2066 11.4018 10.6301 9.8995 9.21954 8.60233 8.06226 7.61577 7.28011 7 6 5 4 3 2 1 0 0 1 2 3 4 4.12311 4 4 4 3.60555 3.16228 3 3 3 3 3 3.16228 3.60555 4 4.12311 3.16228 2.23607 1.41421 1 0 0 1 0 0 0 1 2 3 4 5 6 7 7.81025 8.60233 9 9.05539 9.21954 9.48683 9.84886 10.2956 10.2956 9.43398 8.60233 7.81025 7.07107 6.40312 5.83095 5.38516 5.09902 4.47214 3.60555 2.82843 2.23607 1.41421 1 0 0 0 0 0 0 0 0 0 1 1 1 0 0 1 1 0 0 0 0 0 1 1 1 1 0 0 0 1 1 0 0 1 2 3 3 3 3 3 3.16228 2.82843 2.23607 1.41421 1 1 1 0 0 0 1 1.41421 2.23607 2.82843 3.60555 4.24264 4.47214 4.12311 4 4 4 3 2 1 0 0 1 0 1 2 2 2 1 0 0 0 0 0 1 1 0 0 0 1 1 0 0 1 1.41421 1.41421 1 1 0 0 1 0 0 1 0 0 0 1 2 2.23607 2 2 2 1 0 1 0 0 0 1 1.41421 2 2 2.23607 2.82843 3.60555 3.16228 3 3 3 2.23607 1.41421 1 1 1 1.41421 2.23607 3.16228 4.12311 5.09902 6.08276 5.38516 4.47214 3.60555 2.82843 2.23607 2 2 2.23607 2.82843 3.60555 4.24264 5 5.83095 5 4 3 2 1 0 0 0 0 1 1.41421 2 2 2 2 2 2 2 2.23607 2.82843 2.82843 2.23607 1.41421 1 1 1.41421 1 1 1 1 0 0 0 1 2 2 1.41421 1 0 0 0 0 1 0 0 0 1 1 1 0 0 0 1 0 1 0 0 1 0 1 1 0 0 1 0 0 1 0 0 1 1.41421 1.41421 1 1 1 1.41421 2 2 2 2 2.23607 2.82843 3.60555 3.60555 3.16228 2.82843 2.23607 2 2 2 2.23607 2 2 2 2.23607 2.82843 2 1 0 0 0 0 1 0 0 0 0 0 0 0 0 0 0 0 0 0 0 0 1 1 1 1.41421 2 2 2 2.23607 2.82843 3.60555 4.47214 5.09902 5.38516 5.83095 6.32456 6.08276 6 6 6 6 6 6 5.65685 5 4.24264 3.60555 3.16228 2.82843 2.23607 1.41421 1 0 0 0 0 0 0 0 0 1 1.41421 2 2.23607 2.82843 3 3.16228 3.60555 3 2 1 0 0 0 1 1 1.41421 2 2 2.23607 2.82843 3 3 3.16228 3 3 2.23607 1.41421 1 0 0 1 2 3 4 5 6 7 8 9 10 11 12 13 14 15 15.1327 14.1421 13.1529 12.1655 11.1803 10.198 9.21954 8.24621 7.28011 6.32456 5.38516 4.47214 3.60555 2.82843 2.23607 2 2 1 0 1 0 0 1 2 3 4 4 3 2 1 0
0 1 2 3 4 5 6 7 8 9 10 11 12 13 14 15 16 17 18 19 20 21 22 23 24 25 26 27 28 29 30 31 32 31.6228 30.6757 29.7321 28.7924 27.8568 26.9258 26 25.0799 24.1661 23.2594 22.3607 21.4709 20.5913 19.7231 18.868 18.0278 17.088 16.1555 15.2315 14.3178 13.4164 12.53 11.6619 10.8167 10 9.21954 8.48528 7.81025 7.2111 6.7082 6.32456 6.08276 6 5 4 3 2 1 0 0 1 2 3 3.60555 3.16228 3 3 3 2.82843 2.23607 2 2 2 2 2 2.23607 2.82843 3 3.16228 3.16228 2.82843 2.23607 1.41421 1 0 0 0 0 0 1 2 3 4 5 5.65685 6.40312 7.2111 8 8 8.06226 8.24621 8.544 8.94427 9.43398 9.84886 10 9.21954 8.48528 7.81025 7.2111 6.7082 6.32456 5.83095 5 4.24264 3.60555 2.82843 2.23607 1.41421 1 1 1 0 0 0 1 1 1 1.41421 2 1 0 0 0 0 0 0 0 0 1 1.41421 2 2 1.41421 1 1 1 1.41421 1 0 0 1 2 3 4 4 4 4 3.16228 2.23607 1.41421 1 1 1 1.41421 1 1 0 0 1 1.41421 2.23607 2.82843 3.60555 3.60555 3.16228 3 3 3 3 2 1 0 0 1 0 1 1.41421 1 1 1 0 0 0 0 1 1.41421 1 0 0 1 1.41421 1 0 0 0 1 2 1 0 0 1 0 0 0 0 0 0 0 1 1 1.41421 1 1 1 1 0 0 0 0 0 1 1.41421 1 1 1.41421 2.23607 2.82843 2.23607 2 2 2 2 1 0 0 0 1 2 3 4 5 6 5.09902 4.12311 3.16228 2.23607 1.41421 1 1 1.41421 2.23607 2.82843 3.60555 4.47214 5.38516 5 4 3 2 1 0 0 1 1 1.41421 2.23607 2.82843 3 3 3 3 3 3 3.16228 3.60555 3.60555 2.82843 2.23607 2 2 2.23607 2 2 2 1 0 0 0 1 2 2 2 1.41421 1 1 0 0 0 0 0 0 0 0 0 0 0 0 0 0 1 0 1 0 0 0 0 0 0 0 0 1 0 0 1 1.41421 2.23607 2.23607 2 2 2 2.23607 2.82843 3 3 3 3.16228 3.60555 3.60555 2.82843 2.23607 2 1.41421 1 1 1 1.41421 2.23607 2.82843 3 3.16228 3 2 1 0 0 0 1 1 0 0 0 0 0 0 0 0 1 1 1 1 1 1 1 1.41421 2 2 2.23607 2.82843 3 3 3.16228 3.60555 4.24264 5 5.83095 6.32456 5.83095 5.38516 5.09902 5 5 5 5 5 5 5 4.24264 3.60555 2.82843 2.23607 2 1.41421 1 0 0 1 1 1 1 0 0 0 0 1 1.41421 2.23607 2.82843 3.60555 4.12311 4 3 2 1 0 0 0 0 0 1 1 1 1.41421 2 2 2 2.23607 2 2 2 1 0 0 0 1 2 3 4 5 6 7 8 9 10 11 12 13 14 15 15.2971 14.3178 13.3417 12.3693 11.4018 10.4403 9.48683 8.544 7.61577 6.7082 5.83095 5 4.24264 3.60555 3.16228 3 2 1 0 1 1 1 1.41421 2.23607 3.16228 4.12311 4 3 2 1 0
0 1 2 3 4 5 6 7 8 9 10 11 12 13 14 15 16 17 18 19 20 21 22 23 24 25 26 27 28 29 30 31 32 31.3209 30.3645 29.4109 28.4605 27.5136 26.5707 25.632 24.6982 23.7697 22.8473 21.9317 21.0238 20.1246 19.2354 18.3576 17.4929 16.6433 15.8114 14.8661 13.9284 13 12.083 11.1803 10.2956 9.43398 8.60233 7.81025 7.07107 6.40312 5.83095 5.38516 5.09902 5 5 4.12311 3.16228 2.23607 1.41421 1 1 1.41421 2.23607 3.16228 2.82843 2.23607 2 2 2 2 1.41421 1 1 1 1 1 1.41421 2 2 2.23607 2.23607 2 2 2 1.41421 1 1 0 0 0 1 2 3 3.60555 4.24264 5 5.83095 6.7082 7 7 7.07107 7.28011 7.61577 8.06226 8.544 8.94427 9.21954 9.48683 9.21954 8.60233 8.06226 7.61577 7.2111 6.40312 5.65685 5 4.24264 3.60555 2.82843 2.23607 2 2 1.41421 1 1 1 1.41421 2 2 2.23607 2.23607 1.41421 1 0 0 0 1 1 1 1 1.41421 2.23607 2.82843 2.82843 2.23607 2 2 2 2 1 0 0 1 2 3 4 5 5 4 3 2 1 0 0 0 1 1.41421 1 0 0 0 1 1.41421 2.23607 3 2.82843 2.23607 2 2 2 2 2 1 0 0 1 0 1 1 0 0 0 0 0 0 0 1 1 1 1 1 1.41421 2 1 0 0 0 1 2 1 0 0 1 0 0 0 0 0 0 0 0 0 1 0 0 0 0 0 0 0 1 1 1.41421 1 0 0 1 2 2.23607 1.41421 1 1 1 1.41421 1 0 0 0 1 2 3 4 5 6 5 4 3 2 1 0 0 1 1.41421 2.23607 3.16228 4.12311 5.09902 5.09902 4.12311 3.16228 2.23607 1.41421 1 1 1.41421 2 2.23607 2.82843 3.60555 4 4 4 4 4 4 4.12311 4.47214 4.24264 3.60555 3.16228 3 3 3.16228 3 3 2.23607 1.41421 1 1 1 1.41421 1.41421 1 1 1 1 1 1 1 1 1 1 0 0 0 0 1 1 0 0 1 1 0 0 0 1 0 1 1 0 0 1 0 0 1 1.41421 2.23607 2.82843 3.16228 3 3 3 3.16228 3.60555 4 4 4 4.12311 4.12311 3.16228 2.23607 1.41421 1 1 0 0 0 1 1.41421 2.23607 3.16228 4 3 2 1 0 0 1 1 1 1 1 1 1 0 0 0 1 1.41421 2 2 2 2 2 2 2.23607 2.82843 3 3.16228 3.60555 4 4 4.12311 4.47214 5 5.65685 6 5.65685 5 4.47214 4.12311 4 4 4 4 4 4 4 3.60555 2.82843 2.23607 1.41421 1 1 0 0 1 1.41421 2 2 1.41421 1 0 0 0 0 1 1.41421 2.23607 2.82843 3.16228 3.60555 3.16228 2.23607 1.41421 1 1 0 0 0 0 0 0 1 1 1 1 1.41421 1 1 1 1 0 1 1 1.41421 2.23607 3.16228 4.12311 5.09902 6.08276 7.07107 8.06226 9.05539 10.0499 11.0454 12.0416 13.0384 14.0357 15.0333 15.5242 14.5602 13.6015 12.6491 11.7047 10.7703 9.84886 8.94427 8.06226 7.2111 6.40312 5.65685 5 4.47214 4 3 2 1 0 1 2 2 2.23607 2.82843 3.60555 4.47214 4 3 2 1 0
0 1 2 3 4 5 6 7 8 9 10 11 12 13 14 15 16 17 18 19 20 21 22 23 24 25 26 27 28 29 30 31 32 31.0483 30.0832 29.1204 28.1603 27.2029 26.2488 25.2982 24.3516 23.4094 22.4722 21.5407 20.6155 19.6977 18.7883 17.8885 17 16.1245 15.2643 14.4222 13.6015 12.6491 11.7047 10.7703 9.84886 8.94427 8.06226 7.2111 6.40312 5.65685 5 4.47214 4.12311 4 4 4 3.60555 2.82843 2.23607 2 2 2.23607 2.82843 2.82843 2.23607 1.41421 1 1 1 1 1 0 0 0 0 0 1 1 1 1.41421 1.41421 1 1 1 1 1.41421 1 0 1 1 1.41421 2 2.23607 2.82843 3.60555 4.47214 5.38516 6 6 6 6.08276 6.32456 6.7082 7.2111 7.61577 8.06226 8.24621 8.544 8.94427 9.21954 8.94427 8.544 7.81025 7.07107 6.40312 5.65685 5 4.24264 3.60555 3.16228 3 2.82843 2.23607 2 2 2 2.23607 2.82843 3 3.16228 2.82843 2.23607 1.41421 1 1 1 1.41421 2 2 2 2.23607 2.82843 3.60555 3.60555 3.16228 3 3 3 2.23607 1.41421 1 1 1.41421 2.23607 3.16228 4.12311 5.09902 5 4 3 2 1 0 0 0 1 1 0 0 1 0 0 1 2 2 2 1.41421 1 1 1 1 1 1 0 0 1 0 0 0 0 0 0 0 0 0 0 0 0 0 1 2 2.23607 2.23607 1.41421 1 1 1 1.41421 2 1 0 0 1 0 1 0 0 0 0 0 0 0 0 0 1 1 0 0 0 0 1 2 1 0 0 0 1 2 2 1 0 0 0 1 1.41421 1 0 0 1 2 3 4 5 6 5 4 3 2 1 0 0 0 1 2 3 4 5 5.38516 4.47214 3.60555 2.82843 2.23607 2 2 2.23607 2.82843 3.16228 3.60555 4.24264 5 5 5 5 5 5 5.09902 5.09902 5 4.47214 4.12311 4 4 4.12311 4 3.60555 2.82843 2.23607 2 2 2 2 1 0 0 0 0 0 0 1 1 1 1.41421 1 1 1 1 1.41421 1.41421 1 1 1.41421 1 0 0 0 0 0 1 0 0 0 1 0 0 1 2 2.82843 3.60555 4.12311 4 4 4 4.12311 4.47214 5 5 5 5 4 3 2 1 0 0 0 1 0 0 1 2 3 4 3 2 1 0 0 1 0 0 0 0 0 0 0 0 1 1.41421 2.23607 2.82843 3 3 3 3 3 3.16228 3.60555 4 4.12311 4.47214 5 5 5.09902 5.09902 5 5 5 5 4.24264 3.60555 3.16228 3 3 3 3 3 3 3 2.82843 2.23607 1.41421 1 0 0 0 1 1.41421 2.23607 2.82843 2.82843 2.23607 1.41421 1 0 0 0 0 1 1.41421 2 2.23607 2.82843 3.16228 2.82843 2.23607 2 1.41421 1 0 0 0 0 0 1 0 0 0 1 0 0 0 0 0 1 2 2.23607 2.82843 3.60555 4.47214 5.38516 6.32456 7.28011 8.24621 9.21954 10.198 11.1803 12.1655 13.1529 14.1421 15.1327 15.2971 14.3178 13.3417 12.3693 11.4018 10.4403 9.48683 8.544 7.61577 6.7082 5.83095 5 4.24264 3.60555 3.16228 3 2 1 0 1 2 3 3.16228 3.60555 4.24264 5 4 3 2 1 0
0 1 2 3 4 5 6 7 8 9 10 11 12 13 14 15 16 17 18 19 20 21 22 23 24 25 26 27 28 29 30 31 31.7805 30.8058 29.8329 28.8617 27.8927 26.9258 25.9615 25 24.0416 23.0868 22.1359 21.1896 20.2485 19.3132 18.3848 17.4642 16.5529 15.6525 14.7648 13.8924 13.0384 12.2066 11.4018 10.4403 9.48683 8.544 7.61577 6.7082 5.83095 5 4.24264 3.60555 3.16228 3 3 3 3 3.16228 3.16228 3 3 3.16228 2.82843 2.23607 1.41421 1 0 0 0 0 0 0 1 1 0 0 0 0 0 1 1 0 0 0 0 1 1 0 1 1 1 1 1.41421 2.23607 3.16228 4.12311 5 5 5 5 5.09902 5.38516 5.83095 6.32456 6.7082 7.07107 7.28011 7.61577 8.06226 8.24621 8.544 8.94427 8.48528 7.81025 7.07107 6.40312 5.65685 5 4.47214 4.12311 4 3.60555 3.16228 3 3 3 3.16228 3.60555 4 4.12311 3.60555 2.82843 2.23607 2 2 2 2.23607 2.82843 3 3 3.16228 3.60555 4.24264 4.47214 4.12311 4 4 3.60555 2.82843 2.23607 2 2 2.23607 2.82843 3.60555 4.47214 5.38516 5.09902 4.12311 3.16228 2.23607 1.41421 1 1 1 1.41421 1 0 0 1 0 0 1 1.41421 1 1 1 0 0 0 0 0 0 0 0 1 0 0 0 0 0 0 1 1 0 0 0 0 0 1 1.41421 2.23607 2.82843 2.23607 2 2 2 2.23607 2 1 0 0 1 0 0 0 0 0 0 0 1 1 1 1 0 0 1 1 1 1 1.41421 1 1 0 0 1 1.41421 2 2 1 0 0 0 1 2 1.41421 1 1 1.41421 2.23607 3.16228 4.12311 5.09902 6 5 4 3 2 1 0 0 0 1 2 3 4 5 5.83095 5 4.24264 3.60555 3.16228 3 3 3.16228 3.60555 4.12311 4.47214 5 5.65685 6 6 6 5.65685 5 4.47214 4.12311 4 4 4.12311 4.47214 5 5.09902 5 4.24264 3.60555 3.16228 3 3 3 2 1 0 0 0 0 0 0 0 0 0 1 1 1 1 1 1.41421 2.23607 2 2 2 1 0 0 0 0 0 0 0 0 1 0 0 1 1.41421 2.23607 3.16228 4.12311 5 5 5 5 5.09902 5.38516 5.83095 6 6 5 4 3 2 1 0 0 0 0 0 0 1 2 3 4 3 2 1 0 0 0 0 0 0 0 0 0 1 1 1.41421 2.23607 2.82843 3.60555 4 4 4 4 4 4.12311 4.47214 5 5 5 5 5 4.47214 4.12311 4 4 4 4 3.60555 2.82843 2.23607 2 2 2 2 2 2 2 2 1.41421 1 0 0 1 1 1.41421 2.23607 2.82843 3.60555 3 2 1 0 0 0 0 0 0 1 1 1.41421 2 2.23607 2.82843 3.16228 2.82843 2.23607 1.41421 1 1 1 1 1 1 0 1 0 0 0 0 0 0 0 1 2 3 3.60555 4.24264 5 5.83095 6.7082 7.61577 8.544 9.48683 10.4403 11.4018 12.3693 13.3417 14.3178 15.2971 15.1327 14.1421 13.1529 12.1655 11.1803 10.198 9.21954 8.24621 7.28011 6.32456 5.38516 4.47214 3.60555 2.82843 2.23607 2 2 1 0 1 2 3 4 4.47214 5 5 4 3 2 1 0
0 1 2 3 4 5 6 7 8 9 10 11 12 13 14 15 16 17 18 19 20 21 22 23 24 25 26 27 28 29 30 31 31.3847 30.4631 29.5466 28.6356 27.6586 26.6833 25.7099 24.7386 23.7697 22.8035 21.8403 20.8806 19.9249 18.9737 18.0278 17.088 16.1555 15.2315 14.3178 13.4164 12.53 11.6619 10.8167 10 9.21954 8.24621 7.28011 6.32456 5.38516 4.47214 3.60555 2.82843 2.23607 2 2 2 2 2.23607 2.82843 3 2.82843 2.23607 2 1.41421 1 0 0 0 0 1 1 1 1.41421 1.41421 1 0 0 0 0 0 0 0 0 1 0 0 0 0 0 0 0 0 1 2 3 4 4 4 4 4 4.12311 4.47214 5 5.38516 5.83095 6.08276 6.32456 6.7082 7.07107 7.28011 7.61577 8 8 8 7.81025 7.07107 6.40312 5.83095 5.38516 5.09902 5 4.47214 4.12311 4 4 4 4.12311 4.47214 5 5 4.24264 3.60555 3.16228 3 3 3 3.16228 3.60555 4 4 4.12311 4.47214 5 5.38516 5.09902 5 5 4.24264 3.60555 3.16228 3 3 3.16228 3.60555 4.24264 5 5.83095 5.38516 4.47214 3.60555 2.82843 2.23607 2 2 1.41421 1 1 1 1 1 1 0 0 1 0 0 0 0 0 0 0 0 0 0 0 1 1 1 1 0 0 1 1 0 0 1 0 1 0 0 1 2 3 3.16228 3 3 3 2.82843 2 1 0 0 1 1 1 0 0 0 0 0 1 1.41421 1 0 0 0 0 0 1 1.41421 1 0 0 0 1 1.41421 1 1 1 1.41421 1 1 1 1 1 1 1.41421 2 2.23607 2.82843 3.60555 4.47214 5 5.09902 5 4 3 2 1 0 0 0 1 2 3 4 5 6 5.65685 5 4.47214 4.12311 4 4 4.12311 4.47214 5 5.38516 5.83095 6.32456 6.7082 6.7082 5.83095 5 4.24264 3.60555 3.16228 3 3 3.16228 3.60555 4.24264 5 5.65685 5 4.47214 4.12311 4 4 3 2 1 0 0 1 0 0 1 0 0 0 0 0 0 0 0 1 2 3 3 2 1 0 0 0 0 0 1 1 1 0 0 1 1.41421 2.23607 2.82843 3.60555 4.47214 5.38516 6 6 6 6.08276 6.32456 6.7082 7 6.08276 5.09902 4.12311 3.16228 2.23607 1.41421 1 0 0 0 0 0 1 2 3 4 3.16228 2.23607 1.41421 1 1 1 1 0 0 0 1 1 1.41421 2 2.23607 2.82843 3.60555 4.24264 5 5 5 5 5 5 4.47214 4.12311 4 4 4 4 3.60555 3.16228 3 3 3 3 2.82843 2.23607 1.41421 1 1 1 1 1 1 1 1 1 0 0 1 1.41421 2 2.23607 2.82843 3.60555 4 3 2 1 0 0 1 1 0 0 0 0 1 1 1.41421 2 2.23607 2.82843 2.82843 2.23607 2 2 2 2 2 1 0 0 0 0 0 1 0 0 0 1 2 3 4 5 5.65685 6.40312 7.2111 8.06226 8.94427 9.84886 10.7703 11.7047 12.6491 13.6015 14.5602 15.5242 15.0333 14.0357 13.0384 12.0416 11.0454 10.0499 9.05539 8.06226 7.07107 6.08276 5.09902 4.12311 3.16228 2.23607 1.41421 1 1 1 0 1 2 3 3.16228 3.60555 4.24264 5 4 3 2 1 0
0 1 2 3 4 5 6 7 8 9 10 11 12 13 14 15 16 17 18 19 20 21 22 23 24 25 26 27 28 29 30 31 31.0161 30.0832 29.1548 28.2312 27.313 26.4008 25.4951 24.5153 23.5372 22.561 21.587 20.6155 19.6469 18.6815 17.72 16.7631 15.8114 14.8661 13.9284 13 12.083 11.1803 10.2956 9.43398 8.60233 7.81025 7.07107 6.08276 5.09902 4.12311 3.16228 2.23607 1.41421 1 1 1 1 1.41421 2 2 2 1.41421 1 1 0 0 1 1 1 1.41421 2 2 2.23607 2.23607 1.41421 1 1 1 1 1 1 1 1 1.41421 1 1 1 0 0 1 0 0 1 2 3 3 3 3 3 3 3.16228 3.60555 4.12311 4.47214 5 5.09902 5.38516 5.83095 6.08276 6.32456 6.7082 7 7 7 7.07107 7.28011 7.2111 6.7082 6.32456 6.08276 5.83095 5.38516 5.09902 5 5 5 5.09902 5.38516 5.83095 5.65685 5 4.47214 4.12311 4 4 4 4.12311 4.47214 5 5 5.09902 5.38516 5.83095 5.38516 5.09902 5 5 5 4.47214 4.12311 4 4 4.12311 4.47214 5 5 5 5 5 4.24264 3.60555 3.16228 3 2 1 0 0 0 0 0 1 0 0 0 0 0 0 0 1 1 1 1 1 0 0 1 1 0 0 0 1 0 0 0 1 1 0 1 1 0 1 2 3 3.16228 3.60555 4 3.16228 2.23607 1.41421 1 0 1 1.41421 1 0 0 0 0 0 1 1.41421 1 0 0 1 1 1 0 0 1 0 0 0 0 1 1 0 0 0 1 2 1 0 0 0 0 1 2 3 3.60555 4 4 4 4.12311 4.47214 4.12311 3.16228 2.23607 1.41421 1 1 1 1.41421 2.23607 3.16228 4.12311 5.09902 6.08276 6.40312 5.83095 5.38516 5.09902 5 5 5.09902 5.09902 5 5 5.09902 5.38516 5.83095 6.32456 5.38516 4.47214 3.60555 2.82843 2.23607 2 2 2.23607 2.82843 3.60555 4.47214 5 5.65685 5.38516 5.09902 5 4 3 2 1 0 0 0 0 0 0 0 0 0 0 0 0 0 0 1 2 3 2.82843 2.23607 1.41421 1 1 1 1 1 1 0 0 0 1 1.41421 2.23607 2.82843 3.60555 4.24264 5 5.83095 6.7082 7 7 7.07107 7.28011 7.61577 7.28011 6.32456 5.38516 4.47214 3.60555 2.82843 2.23607 1.41421 1 1 0 0 1 1.41421 2.23607 3.16228 4.12311 3.60555 2.82843 2.23607 2 2 2 1.41421 1 1 1 1.41421 2 2.23607 2.82843 3.16228 3.60555 4.24264 5 5.65685 5 4.47214 4.12311 4 4 3.60555 3.16228 3 3 3 3 2.82843 2.23607 2 2 2 2 2 1.41421 1 0 0 0 0 0 0 0 0 0 0 1 1.41421 2.23607 2.82843 3 3 3.16228 3 3 2 1 0 0 1 1 0 0 1 0 0 0 1 1 1.41421 2.23607 2.82843 2.82843 2.23607 2 2 2 1.41421 1 1 1 0 0 0 1 0 0 0 1 2 3 4 5 6 7 7.81025 8.60233 9.43398 10.2956 11.1803 12.083 13 13.9284 14.8661 15.8114 15 14 13 12 11 10 9 8 7 6 5 4 3 2 1 0 0 1 0 1 2 2 2.23607 2.82843 3.60555 4.47214 4 3 2 1 0
0 1 2 3 4 5 6 7 8 9 10 11 12 13 14 15 16 17 18 19 20 21 22 23 24 25 26 27 28 29 30 31 30.6757 29.7321 28.7924 27.8568 26.9258 26 25.0799 24.1661 23.2594 22.3607 21.3776 20.3961 19.4165 18.4391 17.4642 16.4924 15.5242 14.5602 13.6015 12.6491 11.7047 10.7703 9.84886 8.94427 8.06226 7.2111 6.40312 5.65685 5 4 3 2 1 0 0 0 0 1 1 1 1 1 0 0 0 1 1.41421 2 2 2.23607 2.82843 3 3.16228 2.82843 2.23607 2 2 2 2 2 2 2 2 2.23607 2 2 1.41421 1 0 0 0 0 1 2 2 2 2 2 2 2 2.23607 2.82843 3.16228 3.60555 4 4.12311 4.47214 5 5.09902 5.38516 5.83095 6 6 6 6.08276 6.32456 6.7082 7.07107 7 7 6.7082 6.32456 6.08276 6 6 6 6.08276 6 6 5.83095 5.38516 5.09902 5 5 5 5 5.09902 5.38516 5.83095 5.83095 5.38516 5.09902 5 4.47214 4.12311 4 4 4 4.12311 4.47214 5 5 5 4.47214 4.12311 4 4 4 4 4 4.12311 4 3 2 1 0 0 0 0 0 1 0 0 0 0 1 1 1 1.41421 2 2 2 1.41421 1 1 1.41421 1 0 1 1 0 0 0 1 1.41421 1 0 1 1 0 1 2 2 2.23607 2.82843 3.60555 3 2 1 0 0 1 1 0 0 1 1 0 1 1.41421 1 1 0 0 1 2 1 0 0 1 0 0 0 1 1.41421 1 0 0 0 1 2 1 0 0 0 0 1 2 3 3.16228 3 3 3 3.16228 3.60555 4.24264 3.60555 2.82843 2.23607 2 2 2 2.23607 2.82843 3.60555 4.47214 5 5.65685 5.83095 5.38516 5.09902 5 5 5 4.47214 4.12311 4 4 4.12311 4.47214 5 5.65685 5.09902 4.12311 3.16228 2.23607 1.41421 1 1 1.41421 2.23607 3.16228 3.60555 4.24264 5 5.83095 5.38516 4.47214 3.60555 2.82843 2.23607 1.41421 1 1 0 0 1 1 1 0 0 1 1 1 1 1 1.41421 2.23607 2.23607 2 1.41421 1 1 1 1 0 0 0 0 1 1 1 1.41421 2.23607 3.16228 4.12311 4.47214 5 5.65685 6.40312 7.2111 8 8.06226 8.24621 8.544 7.61577 6.7082 5.83095 5 4.24264 3.60555 2.82843 2.23607 2 1.41421 1 1 1.41421 2.23607 2.82843 3.60555 4.47214 4.24264 3.60555 3.16228 3 3 2.82843 2.23607 2 2 2 2.23607 2.82843 3.16228 3.60555 4.12311 4.47214 5 5 5 4.24264 3.60555 3.16228 3 3 2.82843 2.23607 2 2 2 2 2 1.41421 1 1 1 1 1 1 0 0 1 1 1 1 1 1 1 1 1 1.41421 2.23607 2.23607 2 2 2 2.23607 2 2 2 1 0 0 1 1.41421 1 0 0 0 0 0 0 0 1 1.41421 2 2 1.41421 1 1 1 1 0 0 0 0 1 1 1 0 0 1 1.41421 2.23607 3.16228 4.12311 5.09902 6.08276 7.07107 8.06226 9.05539 10 10.8167 11.6619 12.53 13.4164 14.3178 15.2315 16 15 14 13 12 11 10 9 8 7 6 5 4 3 2 1 0 0 0 0 1 1 1 1.41421 2.23607 3.16228 3.60555 3.16228 3 2 1 0
0 1 2 3 4 5 6 7 8 9 10 11 12 13 14 15 16 17 18 19 20 21 22 23 24 25 26 27 28 29 30 31 30.3645 29.4109 28.4605 27.5136 26.5707 25.632 24.6982 23.7697 22.8473 21.9317 21.0238 20.1246 19.2354 18.2483 17.2627 16.2788 15.2971 14.3178 13.3417 12.3693 11.4018 10.4403 9.48683 8.544 7.61577 6.7082 5.83095 5 4.24264 3.60555 2.82843 2 1 0 1 1 0 0 0 0 0 0 0 1 1 1.41421 2.23607 2.82843 3 3.16228 3.60555 4 4.12311 3.60555 3.16228 3 3 3 3 3 3 3 3 3 3 2.82843 2.23607 1.41421 1 1 1 1 1.41421 1 1 1 1 1 1 1 1.41421 2 2.23607 2.82843 3 3.16228 3.60555 4 4.12311 4.47214 5 5 5 5 5.09902 5.38516 5.83095 6.08276 6 6 6 6 6 6 5.83095 5.38516 5.09902 5 5 5 4.47214 4.12311 4 4 4.12311 4.47214 5 5.65685 5.65685 5 4.47214 4.12311 4 3.60555 3.16228 3 3 3 3.16228 3.60555 4 4.12311 4 3.60555 3.16228 3 3 3 3 3 3.16228 3.16228 2.82843 2.23607 1.41421 1 0 0 0 1 1 0 0 0 0 0 0 1 2 2.82843 3 2.82843 2.23607 2 2 2 1 0 1 0 0 1 1 1.41421 2 1 0 1 1 0 1 1 1 1.41421 2.23607 3.16228 3 2 1 0 0 1 0 0 1 1 0 0 1 1 0 0 0 0 1 2 1.41421 1 0 1 1 1 1 1.41421 1 0 0 0 1 1.41421 2 1.41421 1 1 1 1 1.41421 2 2.23607 2.23607 2 2 2 2.23607 2.82843 3.60555 4.24264 3.60555 3.16228 3 3 3 3 3 3.16228 3.60555 4.24264 5 5 4.47214 4.12311 4 4 4.12311 3.60555 3.16228 3 3 3.16228 3.60555 4.24264 5 5 4 3 2 1 0 0 1 2 2.23607 2.82843 3.60555 4.47214 5.38516 5.09902 4.12311 3.16228 2.23607 1.41421 1 1 1.41421 1 0 0 1 1.41421 1 1 1.41421 2 2 2 2 2 2.23607 1.41421 1 1 0 0 0 0 0 1 1 1 1 0 0 1 2 3 3.16228 3.60555 4.24264 5 5.83095 6.7082 7.61577 8.544 9.21954 8.94427 8.06226 7.2111 6.40312 5.65685 5 4.24264 3.60555 3.16228 2.82843 2.23607 2 2 2.23607 2.82843 3.60555 4.24264 5 5 4.47214 4.12311 4 4 3.60555 3.16228 3 3 3 3.16228 3.60555 4.12311 4.47214 5 4.47214 4.12311 4 4 3.60555 2.82843 2.23607 2 2 2 1.41421 1 1 1 1 1 1 0 0 0 0 0 0 0 1 1.41421 2 2 2 2 2 2 2 2 2.23607 2.23607 1.41421 1 1 1 1.41421 1 1 1 1 0 0 0 1 1 1 1 0 0 0 1 0 0 1 1 1 1 0 0 0 0 0 1 1 0 0 0 0 1 1 1.41421 2.23607 2.82843 3.60555 4.47214 5.38516 6.32456 7.28011 8.24621 9.21954 10.198 11.1803 12.1655 13.0384 13.8924 14.7648 15.6525 16.0312 15.0333 14.0357 13.0384 12.0416 11.0454 10.0499 9.05539 8.06226 7.07107 6.08276 5.09902 4.12311 3.16228 2.23607 1.41421 1 1 0 1 1 0 0 1 2 3 2.82843 2.23607 2 2 1 0
0 1 2 3 4 5 6 7 8 9 10 11 12 13 14 15 16 17 18 19 20 21 22 23 24 25 26 27 28 29 30 31 30.0832 29.1204 28.1603 27.2029 26.2488 25.2982 24.3516 23.4094 22.4722 21.5407 20.6155 19.6977 18.7883 17.8885 17 16.1245 15.1327 14.1421 13.1529 12.1655 11.1803 10.198 9.21954 8.24621 7.28011 6.32456 5.38516 4.47214 3.60555 2.82843 2.23607 1.41421 1 0 1 1 0 0 0 1 1 1 1 1.41421 2 2.23607 2.82843 3.60555 4 4.12311 4.47214 5 5 4.47214 4.12311 4 4 3.60555 3.16228 2.82843 2.23607 2 2 2 2 2 2 1.41421 1 1 1 1 1 0 0 0 0 0 0 0 1 1 1.41421 2 2 2.23607 2.82843 3 3.16228 3.60555 4 4 4 4 4.12311 4.47214 5 5.09902 5 5 5 5 5 5 5 4.47214 4.12311 4 4 4.12311 3.60555 3.16228 3 3 3.16228 3.60555 4.24264 5 5 4.24264 3.60555 3.16228 3 2.82843 2.23607 2 2 2 2.23607 2.82843 3 3.16228 3 2.82843 2.23607 2 2 2 2 2 2.23607 2.23607 2 1.41421 1 1 1 0 0 1 1 0 0 0 1 0 0 1 1.41421 2.23607 3.16228 3.60555 3.16228 2.82843 2.23607 2 1 0 1 0 1 1.41421 2 2.23607 2 1 0 0 1 0 0 0 0 1 2 3 2.82843 2 1 0 1 1 0 0 0 0 0 0 1 0 0 0 0 0 1 2 1.41421 1 0 1 1 1 1 1 1 0 0 1 1.41421 1.41421 1 1 0 0 1 1 1 1 1.41421 1.41421 1 1 1 1.41421 2.23607 3.16228 3.60555 4.24264 4.12311 3.60555 2.82843 2.23607 2 2 2.23607 2.82843 3.60555 4 4 3.60555 3.16228 3 3 3.16228 2.82843 2.23607 2 2 2.23607 2.82843 3.60555 4.47214 5 4 3 2 1 0 0 1 1 1.41421 2.23607 3.16228 4.12311 5.09902 5 4 3 2 1 0 0 1 1 0 0 1 2 2 2 2.23607 1.41421 1 1 1 1 1.41421 1 0 0 0 0 1 1 1 1 0 0 0 0 0 1 2 2 2.23607 2.82843 3.60555 4.47214 5.38516 6.32456 7.28011 8.24621 9.21954 9.43398 8.60233 7.81025 7.07107 6.40312 5.65685 5 4.47214 4.12311 3.60555 3.16228 3 3 3.16228 3.60555 4.24264 5 5.65685 5.83095 5.38516 5.09902 5 5 4.47214 4.12311 4 4 4 4.12311 4.47214 5 5 4.24264 3.60555 3.16228 3 3 2.82843 2.23607 1.41421 1 1 1 1 0 0 0 0 0 1 0 1 1 1 1 1 1 1 1 1.41421 2.23607 3 3 3 3 3 3 3 2 1 0 0 0 1 0 0 0 0 0 1 0 1 0 0 0 1 1 0 0 0 0 0 0 0 0 0 0 1 1 0 0 0 0 0 0 0 1 1.41421 2.23607 2.82843 3.60555 4.24264 5 5.83095 6.7082 7.61577 8.544 9.48683 10.4403 11.4018 12.3693 13.3417 14.3178 15.2643 16.1245 16.1245 15.1327 14.1421 13.1529 12.1655 11.1803 10.198 9.21954 8.24621 7.28011 6.32456 5.38516 4.47214 3.60555 2.82843 2.23607 2 1 0 1 1 0 0 1 2 2 2 1.41421 1 1 1 0
0 1 2 3 4 5 6 7 8 9 10 11 12 13 14 15 16 17 18 19 20 21 22 23 24 25 26 27 28 29 30 30.8058 29.8329 28.8617 27.8927 26.9258 25.9615 25 24.0416 23.0868 22.1359 21.1896 20.2485 19.3132 18.3848 17.4642 16.5529 15.6525 14.7648 13.8924 13 12.0416 11.0454 10.0499 9.05539 8.06226 7.07107 6.08276 5.09902 4.12311 3.16228 2.23607 1.41421 1 0 0 1 1.41421 1 1 1 1.41421 2 2 2 2.23607 2.82843 3.16228 3.60555 4 4 4 4 4 4.12311 3.60555 3.16228 3 3 2.82843 2.23607 2 1.41421 1 1 1 1 1 1 1 0 0 0 0 0 0 1 0 0 0 0 0 0 0 1 1 1 1.41421 2 2 2.23607 2.82843 3 3 3 3 3.16228 3.60555 4.12311 4.12311 4 4 4 4 4 4 4 3.60555 3.16228 3 3 3.16228 2.82843 2.23607 2 2 2.23607 2.82843 3.60555 4 4 3.60555 2.82843 2.23607 2 2 1.41421 1 1 1 1.41421 2 2 2.23607 2 2 1.41421 1 1 1 1 1 1.41421 1.41421 1 1 0 0 1 0 0 1 1.41421 1 0 0 0 0 0 0 1 2 3 4 3.16228 2.23607 1.41421 1 1 0 0 0 1 2 2.82843 3.16228 2.23607 1.41421 1 0 0 0 0 1 0 1 2 3 2.23607 1.41421 1 0 1 0 0 1 0 0 0 1 1 0 0 0 0 1 1.41421 2 1 0 0 1 0 0 0 0 0 0 1 1 1 1 0 0 0 0 0 0 0 0 1 1 0 0 0 1 2 2.23607 2.82843 3.60555 4 3.16228 2.23607 1.41421 1 1 1.41421 2.23607 3 3 3 2.82843 2.23607 2 2 2.23607 2.23607 1.41421 1 1 1.41421 2.23607 3.16228 4.12311 5 4.12311 3.16228 2.23607 1.41421 1 0 0 0 1 2 3 4 5 5 4 3 2 1 0 0 1 1 1 1 1.41421 2.23607 3 3 2 1 0 0 0 0 1 1 0 0 1 1 1 0 0 0 0 0 0 1 1 1 1 1 1.41421 2.23607 3.16228 4.12311 5.09902 6.08276 7.07107 8.06226 9.05539 10 9.21954 8.48528 7.81025 7.07107 6.40312 5.83095 5.38516 5 4.47214 4.12311 4 4 4.12311 4.47214 5 5.65685 6.40312 6.7082 6.32456 6.08276 6 5.83095 5.38516 5.09902 5 5 5 5.09902 5.38516 5.38516 4.47214 3.60555 2.82843 2.23607 2 2 2 1.41421 1 0 0 0 0 0 1 1 1 0 0 0 1 1 1 1.41421 2 1 0 0 1 2 3 4 4 4 4 4 3 2 1 0 0 0 1 0 0 0 0 0 0 0 1 0 0 0 1 1.41421 1 1 0 0 0 0 0 0 0 0 0 0 0 1 1 1 0 0 0 0 1 2 3 4 5 5.65685 6.40312 7.2111 8.06226 8.94427 9.84886 10.7703 11.7047 12.6491 13.6015 14.5602 15.5242 16.4924 16.2788 15.2971 14.3178 13.3417 12.3693 11.4018 10.4403 9.48683 8.544 7.61577 6.7082 5.83095 5 4.24264 3.60555 2.82843 2 1 0 0 1 0 0 1 1.41421 1 1 1 0 0 1 0
0 1 2 3 4 5 6 7 8 9 10 11 12 13 14 15 16 17 18 19 20 21 22 23 24 25 26 27 28 29 30 30.5941 29.6142 28.6356 27.6586 26.6833 25.7099 24.7386 23.7697 22.8035 21.8403 20.8806 19.9249 18.9737 18.0278 17.088 16.1555 15.2315 14.3178 13.4164 12.53 11.6619 10.7703 9.84886 8.94427 8 7 6 5 4 3 2 1 0 0 1 1.41421 2.23607 2 2 2 2.23607 2.82843 3 3 3.16228 3.16228 3 3 3 3 3 3 3 3.16228 2.82843 2.23607 2 2 2 1.41421 1 1 0 0 0 0 0 0 0 0 1 1 1 1 1 1.41421 1 1 1 1 1 1 0 0 0 0 1 1 1 1.41421 2 2 2 2 2 2.23607 2.82843 3.16228 3.16228 3 3 3 3 3 3 3 2.82843 2.23607 2 2 2.23607 2 1.41421 1 1 1.41421 2.23607 3.16228 3 3 3 2.23607 1.41421 1 1 1 0 0 0 1 1 1 1.41421 1 1 1 0 0 0 0 0 1 1 0 0 0 0 0 1 1 1.41421 2 1 0 0 0 0 0 0 1 2 3 4 3 2 1 0 0 0 0 1 1.41421 2.23607 3.16228 3.60555 2.82843 2.23607 1.41421 1 1 1 0 0 0 1 2 3 2 1 0 0 1 0 1 0 0 0 0 1 1.41421 1 1 1 0 0 1 1.41421 1 0 1 1 0 0 0 0 0 0 0 0 0 0 0 0 0 1 0 0 0 0 1 0 0 0 0 1 1 1.41421 2.23607 2.82843 3 3 2 1 0 0 1 2 2 2 2 2.23607 1.41421 1 1 1.41421 2 1 0 0 1 2 3 3.60555 4 4.12311 3.60555 2.82843 2 1 0 0 0 1 2 3 4 4 4 4 3 2 1 0 0 0 0 1 2 2.23607 2.82843 3.60555 3 2 1 0 0 0 0 1 1.41421 1 0 0 0 0 0 1 0 0 0 0 0 1 0 0 0 1 2 3 4 5 6 7 8 9 10 9.8995 9.21954 8.48528 7.81025 7.2111 6.7082 6.32456 5.83095 5.38516 5.09902 5 5 5.09902 5.38516 5.83095 6.40312 7.07107 7.61577 7.28011 7.07107 7 6.7082 6.32456 6.08276 6 6 6 6.08276 6.08276 5.09902 4.12311 3.16228 2.23607 1.41421 1 1 1 1 0 0 1 1 1 1 1.41421 2 1.41421 1 1 1 0 0 0 1 1.41421 1 0 0 1 2 3 3 3 3.16228 3.60555 4 3.16228 2.23607 1.41421 1 1 1 1.41421 1 1 1 0 0 0 1 1.41421 1 1 1 1.41421 2.23607 2 1.41421 1 1 1 1 1 1 1 1 1 1 1 1 0 0 0 0 0 0 1 2 3 4 5 6 7 7.81025 8.60233 9.43398 10.2956 11.1803 12.083 13 13.9284 14.8661 15.8114 16.1245 16.2788 15.5242 14.5602 13.6015 12.6491 11.7047 10.7703 9.84886 8.94427 8.06226 7.07107 6.08276 5.09902 4.12311 3.16228 2.23607 1.41421 1 0 0 1 1 1 1.41421 1 0 0 0 0 0 1 0
0 1 2 3 4 5 6 7 8 9 10 11 12 13 14 15 16 17 18 19 20 21 22 23 24 25 26 27 28 29 30 30.4138 29.4279 28.4429 27.4591 26.4764 25.4951 24.5153 23.5372 22.561 21.587 20.6155 19.6469 18.6815 17.72 16.7631 15.8114 14.8661 13.9284 13 12.083 11.1803 10.2956 9.43398 8.544 7.61577 6.7082 5.83095 5 4 3 2 1 0 1 1.41421 2.23607 2.82843 3 3 3 3.16228 3.60555 3.60555 3.16228 2.82843 2.23607 2 2 2 2 2 2 2 2.23607 2 1.41421 1 1 1 1 0 0 0 1 1 1 1 1 1 1 1.41421 2 2 2 2 2.23607 2 2 2 2 2 1.41421 1 1 0 0 0 0 0 1 1 1 1 1 1 1.41421 2 2.23607 2.23607 2 2 2 2 2 2 2 2 1.41421 1 1 1.41421 1 1 0 0 1 2 2.23607 2 2 2 2 1 0 0 0 0 0 0 0 0 0 1 0 0 0 0 0 0 0 0 1 1 0 0 0 0 0 1 2 2.23607 2.23607 1.41421 1 1 1 1 1 1 1.41421 2.23607 3.16228 4 3 2 1 0 0 0 1 1.41421 2.23607 2.82843 3.60555 4.24264 3.60555 2.82843 2.23607 2 1.41421 1 0 0 0 1 2 3 2 1 0 1 1 0 0 0 0 1 0 1 1 0 0 0 0 0 1 1 0 0 1 1.41421 1 1 1 1 0 0 1 0 0 0 0 0 1 0 0 0 0 1 0 0 0 0 0 0 0 1 1.41421 2 2 2.23607 2 1 0 0 1 1 1 1 1 1.41421 1 0 0 1 1.41421 1 0 0 1 2 2.23607 2.82843 3 3.16228 3.16228 3 2.23607 1.41421 1 0 0 1 2 3 3 3 3 3 3 2.23607 1.41421 1 0 0 0 1 2 3 3.60555 4.12311 3.16228 2.23607 1.41421 1 0 0 0 1 2 1 0 0 0 1 1 1 1 1 1 1 0 1 0 0 0 1 2 3 4 5 6 7 8 9 10 10.6301 9.8995 9.21954 8.60233 8.06226 7.61577 7.2111 6.7082 6.32456 6.08276 6 6 6.08276 6.32456 6.7082 7.2111 7.81025 8.48528 8.24621 8.06226 8 7.61577 7.28011 7.07107 7 7 7 7 6 5 4 3 2 1 0 0 0 0 0 1 1.41421 2 2 2 2.23607 2.82843 2.23607 2 2 1 0 0 0 0 1 1.41421 1 1 1.41421 2.23607 2.23607 2 2 2.23607 2.82843 3 3 2.82843 2.23607 2 2 2 2.23607 2 2 1 0 0 0 1 2 2 2 2 2 2 2 2.23607 2 2 2 2 2 2 2 2 2 2 2 1 0 0 0 1 0 1 1.41421 2.23607 3.16228 4.12311 5.09902 6.08276 7.07107 8.06226 9.05539 10 10.8167 11.6619 12.53 13.4164 14.3178 15 15.0333 15.1327 15.2971 15.2971 14.8661 13.9284 13 12 11 10 9 8 7 6 5 4 3 2 1 0 0 0 1 2 2 2 1 0 0 1 0 0 1 0
0 1 2 3 4 5 6 7 8 9 10 11 12 13 14 15 16 17 18 19 20 21 22 23 24 25 26 27 28 29 30 30.2655 29.2746 28.2843 27.2947 26.3059 25.318 24.3311 23.3452 22.3607 21.3776 20.3961 19.4165 18.4391 17.4642 16.4924 15.5242 14.5602 13.6015 12.6491 11.7047 10.7703 9.84886 8.94427 8.06226 7.2111 6.32456 5.38516 4.47214 3.60555 2.82843 2 1 0 1 1 1.41421 2.23607 2.82843 3.60555 3.60555 3.16228 3 2.82843 2.23607 2 1.41421 1 1 1 1 1 1 1 1.41421 1 1 0 0 0 0 0 0 1 1.41421 2 2 2 2 2 2 2.23607 2.82843 3 3 3 3.16228 3 3 3 3 2.82843 2.23607 2 1.41421 1 1 1 0 0 0 0 0 0 0 0 1 1 1.41421 1.41421 1 1 1 1 1 1 1 1 1 0 0 1 0 0 0 0 1 2 1.41421 1 1 1 1 1 0 0 1 1 1 1 1 1 0 0 0 0 1 0 0 0 0 1 1 0 0 0 0 0 0 1 2 3 2.82843 2.23607 2 2 2 2 2 2 2.23607 2.82843 3.60555 4.12311 3.16228 2.23607 1.41421 1 1 1 1.41421 2.23607 2.82843 3.60555 4.24264 5 4.12311 3.16228 2.23607 1.41421 1 0 0 0 1 1.41421 2.23607 2.82843 2 1 0 1 1 0 0 0 0 1 0 1 1 0 0 0 0 1 1 0 0 0 1 2 1.41421 1 1 1 1 0 0 0 0 0 1 1 0 0 0 0 1 1 0 0 0 1 0 0 0 0 1 1 1 1.41421 2 1 0 0 0 0 0 0 0 1 0 0 0 0 1 1.41421 1 1 1 1 1.41421 2 2 2.23607 2.23607 2 2 2 1.41421 1 1 1.41421 2 2 2 2 2 2 2 2.23607 2.23607 1.41421 1 0 0 1 2 3 4 3.60555 2.82843 2.23607 2 1.41421 1 1 1 1.41421 2.23607 1.41421 1 1 1 1 0 0 0 0 0 1 0 1 1 1 1 1.41421 2.23607 3.16228 4.12311 5.09902 6.08276 7.07107 8.06226 9.05539 10.0499 11.0454 10.6301 10 9.43398 8.94427 8.544 8.06226 7.61577 7.28011 7.07107 7 7 7.07107 7.28011 7.61577 8.06226 8.60233 9.21954 9.21954 9.05539 8.94427 8.544 8.24621 8.06226 7.81025 7.2111 6.7082 6.32456 6 5 4 3 2 1 0 1 1 0 0 1 2 2.23607 2.82843 3 3.16228 3.60555 3.16228 3 2.23607 1.41421 1 1 0 0 0 1 1 1.41421 2.23607 2.23607 1.41421 1 1 1.41421 2 2 2 2.23607 2.82843 2.23607 2 2 2.23607 2.82843 2 1 0 0 0 1 2 1.41421 1 1 1 1 1 1.41421 2.23607 3 3 3 3 3 3 3 3 3 2.23607 1.41421 1 1 1 0 0 1 2 2.82843 3.60555 4.47214 5.38516 6.32456 7.28011 8.24621 9.21954 10.198 11.1803 12.1655 13.0384 13.8924 14 14 14.0357 14.1421 14.3178 14.3178 14.1421 14 13 12 11 10 9 8 7 6 5 4 3 2 1 0 0 1 1.41421 2.23607 2 2 1 0 0 0 0 0 1 0
0 1 2 3 4 5 6 7 8 9 10 11 12 13 14 15 16 17 18 19 20 21 22 23 24 25 26 27 28 29 30 30.1496 29.1548 28.1603 27.1662 26.1725 25.1794 24.1868 23.1948 22.2036 21.2132 20.2237 19.2354 18.2483 17.2627 16.2788 15.2971 14.3178 13.3417 12.3693 11.4018 10.4403 9.48683 8.544 7.61577 6.7082 5.83095 5 4.12311 3.16228 2.23607 1.41421 1 0 0 0 1 1.41421 2.23607 3.16228 2.82843 2.23607 2 2 1.41421 1 1 0 0 0 0 0 0 0 1 0 0 0 0 1 1 1 1 1.41421 2.23607 2.82843 3 3 3 3 3 3.16228 3.60555 4 4 4 4.12311 4 4 4 4 3.60555 3.16228 2.82843 2.23607 2 2 1.41421 1 1 1 0 0 0 0 0 0 0 1 1 0 0 0 0 0 0 0 0 1 0 0 0 0 0 0 0 1 1.41421 1 0 0 0 0 0 0 1 1.41421 2 2 2 1 0 0 0 1 1 1 0 0 1 1 1 0 0 0 0 1 1 1 1.41421 2.23607 3.16228 3.60555 3.16228 3 3 3 3 3 3 3.16228 3.60555 4.24264 4.47214 3.60555 2.82843 2.23607 2 2 2 2.23607 2.82843 3.60555 4.24264 5 5 4 3 2 1 0 0 0 0 1 2 2.82843 2.23607 1.41421 1 0 1 1.41421 1 0 0 1 1 0 1 0 0 1 1 1 1 0 0 0 1 1.41421 1.41421 1 0 0 0 1 1 1 1 1 1 1.41421 1 0 0 0 1 1 0 0 1 0 0 0 0 0 0 0 0 0 1 1.41421 1 1 0 0 0 1 0 0 0 0 0 0 0 1 2 1.41421 1 0 0 1 1 1 1.41421 1.41421 1 1 1 1.41421 2 1.41421 1 1 1 1 1 1 1 1 1.41421 2.23607 2.23607 1.41421 1 1 1.41421 2.23607 2.82843 3.60555 3.16228 2.23607 1.41421 1 1 1 1 1 1.41421 2 1 0 0 0 0 0 0 1 0 0 0 0 1 2 2 2 2.23607 2.82843 3.60555 4.47214 5.38516 6.32456 7.28011 8.24621 9.21954 9.8995 10.4403 10.7703 10.8167 10.2956 9.84886 9.43398 8.94427 8.544 8.24621 8.06226 8 8 8.06226 8.24621 8.544 8.94427 9.43398 10 10.198 10.0499 9.84886 9.43398 8.60233 7.81025 7.07107 6.40312 5.83095 5.38516 5.09902 5 4 3 2 1 0 0 1 1 1 1 1 1.41421 2.23607 3 3.16228 3.60555 4.12311 3.60555 2.82843 2.23607 2 1.41421 1 0 0 0 0 1 1.41421 2 1 0 0 1 1 1 1 1.41421 2.23607 1.41421 1 1 1.41421 2.23607 2 1 0 0 0 1 1 1 0 0 0 0 0 1 2 3 4 4 4 4 4 4 4 3.60555 2.82843 2.23607 2 2 1 0 0 1 2 2.82843 3.60555 4.47214 5.38516 6.32456 7.28011 8.24621 9.21954 10 10.8167 11.6619 12.53 13.0384 13 13 13.0384 13.1529 13.3417 13.3417 13.1529 13.0384 13 12 11 10 9 8 7 6 5 4 3 2 1 0 0 1 2 1.41421 1 1 1.41421 1 1 1 1 1 1 0
0 1 2 3 4 5 6 7 8 9 10 11 12 13 14 15 16 17 18 19 20 21 22 23 24 25 26 27 28 29 30 30.0666 29.0689 28.0713 27.074 26.0768 25.0799 24.0832 23.0868 22.0907 21.095 20.0998 19.105 18.1108 17.1172 16.1245 15.1327 14.1421 13.1529 12.1655 11.1803 10.198 9.21954 8.24621 7.28011 6.32456 5.38516 4.47214 3.60555 2.82843 2 1 0 0 0 0 0 1 2 2.82843 2.23607 1.41421 1 1 1 0 0 0 0 1 1 1 0 0 0 0 1 1 1 1 1.41421 2 2 2.23607 2.82843 3.60555 4 4 4 4 4 4.12311 4.47214 5 5 5 5.09902 5 5 5 5 4.47214 4.12311 3.60555 3.16228 3 2.82843 2.23607 2 2 1.41421 1 1 1 1 1 1 0 0 0 0 0 1 1 1 1 0 0 0 0 0 1 1 0 0 1 1.41421 1 0 0 0 0 0 0 1 1.41421 2.23607 2.82843 2.82843 2 1 0 1 0 1 0 0 1 0 0 1 0 0 0 0 0 0 1 1.41421 2.23607 2.82843 3.60555 4.47214 4.12311 4 4 4 4 4 4 4.12311 4.47214 5 5 4.24264 3.60555 3.16228 3 3 3 3.16228 3.60555 4.24264 5 5.65685 5 4 3 2 1 0 0 0 1 1.41421 2.23607 3 2 1 0 0 1 1 0 0 1 1 1 0 1 0 0 0 0 0 0 0 0 0 1 2 1 0 0 1 0 0 0 1 0 0 0 1 1 0 0 1 1 0 0 1 1.41421 1 1 1 1 1 0 0 0 0 1 1 0 0 0 0 0 0 0 1 1 1 1 0 0 1 1.41421 1 0 0 0 1 0 0 1 1 0 0 0 1 1 1 0 0 0 0 0 0 0 0 1 1.41421 2.23607 2.23607 1.41421 1 1 1.41421 2.23607 2.82843 3 2 1 0 0 0 0 0 1 2 1 0 0 0 0 0 0 0 1 1 1 1 1.41421 2.23607 2.82843 3 3.16228 3.60555 4.24264 5 5.65685 6.40312 7.07107 7.81025 8.48528 9.21954 9.48683 9.84886 10.2956 10.8167 10.7703 10.2956 9.84886 9.48683 9.21954 9.05539 9 9 9.05539 9.21954 9.48683 9.84886 10.2956 10.8167 11.1803 10.7703 9.84886 8.94427 8.06226 7.2111 6.40312 5.65685 5 4.47214 4.12311 4 4 3 2 1 0 0 0 0 0 0 0 1 2 2 2.23607 2.82843 3.16228 3.60555 3.60555 3.16228 2.82843 2.23607 1.41421 1 1 0 0 0 1 1 1 0 0 0 0 0 0 1 2 1 0 0 1 1.41421 1 1 1 0 0 0 0 0 0 1 0 0 0 1 2 3 4 5 5 5 5 5 5 4.24264 3.60555 3.16228 3 2 1 0 0 1 1.41421 2.23607 3.16228 4.12311 5.09902 6.08276 7.07107 7.81025 8.60233 9.43398 10.2956 11.1803 12.083 12.0416 12 12 12.0416 12.1655 12.3693 12.3693 12.1655 12.0416 12 12 11.0454 10.0499 9.05539 8.06226 7.07107 6.08276 5.09902 4.12311 3.16228 2.23607 1.41421 1 0 1 2 1 0 0 1 2 2 2 2 2 1 0
0 1 2 3 4 5 6 7 8 9 10 11 12 13 14 15 16 17 18 19 20 21 22 23 24 25 26 27 28 29 30 30.0167 29.0172 28.0179 27.0185 26.0192 25.02 24.0208 23.0217 22.0227 21.0238 20.025 19.0263 18.0278 17.0294 16.0312 15.0333 14.0357 13.0384 12.0416 11.0454 10.0499 9.05539 8.06226 7.07107 6.08276 5.09902 4.12311 3.16228 2.23607 1.41421 1 0 0 0 0 0 1 2 2 1.41421 1 0 0 0 0 1 1 1 1.41421 2 1.41421 1 1 1 1 1.41421 1 0 0 1 2 2.82843 3.16228 3.60555 4.24264 5 5 5 5 5 5.09902 5.38516 5.83095 6 6 6.08276 6 6 6 5.83095 5.38516 5 4.47214 4.12311 4 3.60555 3.16228 3 2.82843 2.23607 2 2 2 2 2 1.41421 1 1 1 1 1 1.41421 2 2 1.41421 1 1 0 0 0 1 1 0 0 1 1 0 0 1 0 0 1 1 1 1 1.41421 2.23607 2.23607 1.41421 1 0 1 0 0 0 0 0 0 0 0 0 0 0 0 0 0 0 1 2 3 4 4 4 4.12311 4.47214 5 5 5 5 5.09902 5.38516 5.83095 5.65685 5 4.47214 4.12311 4 4 4 4.12311 4.47214 5 5.65685 5 4.24264 3.60555 2.82843 2 1 0 0 0 1 2 2.82843 3 2 1 0 0 1 1 0 1 1 0 0 0 1 0 0 0 0 0 0 0 1 0 1 2 1 0 1 0 0 0 0 1 0 0 0 1 1.41421 1 1 0 0 0 1 1 1 0 0 1 2 1.41421 1 1 1 0 1 1 0 0 0 0 0 0 0 1 0 0 0 0 0 1 1 0 0 0 0 1 0 0 1 1 0 1 0 0 0 1 0 1 0 0 0 1 1 0 0 1 1.41421 2 1 0 0 1 1.41421 2.23607 2.82843 2 1 0 0 0 0 0 1 2 1 0 0 0 1 0 0 0 0 0 1 1 1 1.41421 2 2.23607 2.82843 3.16228 3.60555 4.24264 5 5.65685 6.40312 7.07107 7.81025 8.24621 8.544 8.94427 9.43398 10 10.6301 11.1803 10.7703 10.4403 10.198 10.0499 10 10 10.0499 10.198 10.4403 10.7703 11.1803 11.6619 11.4018 10.4403 9.48683 8.544 7.61577 6.7082 5.83095 5 4.24264 3.60555 3.16228 3 3 3 2.23607 1.41421 1 1 1 1 0 0 0 1 1 1 1.41421 2 2.23607 2.82843 3.16228 3.60555 3.60555 2.82843 2.23607 2 1.41421 1 0 0 0 0 1 1 0 0 0 0 0 1 1.41421 1 0 0 1 1 0 0 0 0 1 0 0 0 0 0 0 1 1 1.41421 2.23607 3.16228 4.12311 5.09902 6 6 6 6 5.65685 5 4.47214 3.60555 2.82843 2 1 0 0 0 1 2 3 4 5 5.65685 6.40312 7.2111 8.06226 8.94427 9.84886 10.7703 11.1803 11.0454 11 11 11.0454 11.1803 11.4018 11.4018 11.1803 11.0454 11 11 11.0454 10.198 9.21954 8.24621 7.28011 6.32456 5.38516 4.47214 3.60555 2.82843 2 1 0 1 2 1 0 0 1 2 3 3 3 2 1 0
0 1 2 3 4 5 6 7 8 9 10 11 12 13 14 15 16 17 18 19 20 21 22 23 24 25 26 27 28 29 30 30 29 28 27 26 25 24 23 22 21 20 19 18 17 16 15 14 13 12 11 10 9 8 7 6 5 4 3 2 1 0 0 0 0 0 0 1 1.41421 1 1 0 0 1 1 1 1.41421 2 2 2.23607 2.23607 2 2 2 1.41421 1 1 0 0 0 1 1.41421 2 2.23607 2.82843 3.60555 4.47214 5.38516 6 6 6 6.08276 6.32456 6.7082 7 7 7.07107 7 7 7 6.7082 6.32456 5.83095 5.38516 5.09902 5 4.47214 4.12311 4 3.60555 3.16228 3 3 3 3 2.82843 2.23607 2 2 2 2 2 2.23607 2.82843 2.82843 2.23607 2 1.41421 1 1 1 1.41421 1 0 0 0 0 0 0 0 0 0 1 1 0 0 1 1.41421 1.41421 1 0 0 1 0 0 0 0 0 0 0 0 0 0 0 0 0 0 0 1 2 3 3.16228 3 3 3.16228 3.60555 4.24264 5 5.65685 6 6.08276 6.32456 6.7082 6.40312 5.83095 5.38516 5.09902 5 5 5 5.09902 5.38516 5.83095 5.38516 4.47214 3.60555 2.82843 2.23607 1.41421 1 0 0 0 1 2 3 2.82843 2 1 0 0 1 0 0 1 1 0 0 0 1 0 0 1 1 0 0 1 0 0 1 1.41421 1 0 1 0 0 0 0 1 0 0 1 1 1.41421 1.41421 1 0 0 1 0 0 1 0 0 1 2 2.23607 2 2 1 0 0 1 0 0 1 1 1 1 1 1 0 0 0 0 0 1 1 0 0 0 0 1 1 1 1.41421 1 0 0 1 0 0 1 0 0 1 1 1 1.41421 1.41421 1 0 0 1 1 1 0 0 0 1 1.41421 2.23607 2 1 0 0 0 0 0 1 1 1 1 0 0 1 0 0 0 0 0 0 0 0 1 1 1.41421 2 2.23607 2.82843 3.60555 4.24264 5 5.65685 6.40312 7.07107 7.28011 7.61577 8.06226 8.60233 9.21954 9.8995 10.6301 11.4018 11.4018 11.1803 11.0454 11 11 11.0454 11.1803 11.4018 11.7047 12.083 12.083 11.1803 10.198 9.21954 8.24621 7.28011 6.32456 5.38516 4.47214 3.60555 2.82843 2.23607 2 2 2 2.23607 1.41421 1 1 1 1.41421 1 1 0 0 0 0 1 1 1.41421 2 2.23607 2.82843 3 3 3 2.82843 2.23607 1.41421 1 0 0 0 0 0 0 1 0 0 0 0 1 1 0 0 0 0 0 0 0 1 0 0 1 1 1 1 1 1.41421 2 2.23607 2.82843 3.60555 4.47214 5.38516 6.32456 7 7 7 6.08276 5.09902 4.12311 3.16228 2.23607 1.41421 1 0 0 0 1 2 3 3.60555 4.24264 5 5.83095 6.7082 7.61577 8.544 9.48683 10.4403 10.198 10.0499 10 10 10.0499 10.198 10.4403 10.4403 10.198 10.0499 10 10 10.0499 10.198 9.48683 8.544 7.61577 6.7082 5.83095 5 4 3 2 1 0 1 2 1.41421 1 1 1.41421 2.23607 2.82843 2.23607 2 2 1 0
0 1 2 3 4 5 6 7 8 9 10 11 12 13 14 15 16 17 18 19 20 21 22 23 24 25 26 27 28 29 30 30 29 28 27 26 25 24 23 22 21 20 19 18 17 16 15 14 13 12 11 10 9 8 7 6 5 4 3 2 1 0 0 0 1 1 0 1 1 0 0 0 1 1.41421 2 2 2.23607 2.82843 2.23607 2 1.41421 1 1 1 1 0 0 0 0 0 0 1 1 1.41421 2.23607 3.16228 4.12311 5.09902 6.08276 6.7082 7 7.07107 7.28011 7.61577 8 8 8.06226 8 8 8 7.61577 7.2111 6.7082 6.32456 6.08276 5.83095 5.38516 5.09902 5 4.47214 4.12311 4 4 4 4 3.60555 3.16228 3 3 3 3 3 3.16228 3.60555 3.60555 3.16228 2.82843 2.23607 2 2 2 2.23607 1.41421 1 1 1 1 0 0 0 0 0 1 1 0 0 0 1 1 0 0 0 1 0 0 0 0 1 0 0 0 0 0 0 0 1 0 1 1.41421 2.23607 2.82843 2.23607 2 2 2.23607 2.82843 3.60555 4.24264 5 5.83095 6.7082 7 7 7.07107 6.7082 6.32456 6.08276 6 6 6 6.08276 6.32456 6.08276 5.09902 4.12311 3.16228 2.23607 1.41421 1 0 0 0 1 1.41421 2.23607 3.16228 2.23607 1.41421 1 0 1 1 0 0 0 0 0 0 0 0 1 0 0 0 0 1 1 0 0 1 1 0 0 1 0 0 0 0 1 1 1 0 0 1 1 0 0 1 1 0 0 1 1 1 1.41421 2.23607 3.16228 3 2 1 0 0 0 0 0 0 0 1 1 1 0 0 0 1 1 1 0 0 0 0 0 1 1.41421 2 2 2 1 0 0 0 0 1 1 0 0 1 1.41421 2 2 2 1 0 0 0 0 0 0 0 0 0 1 1.41421 2.23607 1.41421 1 0 0 0 1 1 0 0 1 1 0 0 0 1 0 0 0 0 0 0 0 0 1 1 1.41421 2.23607 2.82843 3.60555 4.24264 5 5.83095 6.08276 6.32456 6.7082 7.2111 7.81025 8.48528 9.21954 10 10.8167 11.6619 12.1655 12.0416 12 12 12.0416 12.1655 12.3693 12.2066 11.6619 11.1803 10.7703 10.0499 9.05539 8.06226 7.07107 6.08276 5.09902 4.12311 3.16228 2.23607 1.41421 1 1 1 1.41421 1 0 0 0 1 1 0 0 1 1 0 0 0 1 1 1.41421 2 2 2 2 2 1.41421 1 1 0 0 1 1 1 0 1 1 1 0 0 0 0 0 1 1 1 0 1 0 0 0 1 1.41421 2 2 2 2 2.23607 2.82843 3.16228 3.60555 4.24264 5 5.83095 6.7082 7.61577 8 7 6 5 4 3 2 1 0 0 1 1 1.41421 2 2.23607 2.82843 3.60555 4.47214 5.38516 6.32456 7.28011 8.24621 9.21954 9.48683 9.21954 9.05539 9 9 9.05539 9.21954 9.48683 9.48683 9.21954 9.05539 9 9 9.05539 9.21954 9.48683 8.94427 8 7 6 5 4 3 2 1 0 1 1.41421 2.23607 2 2 2.23607 2.82843 2.23607 1.41421 1 1 1 0
0 1 2 3 4 5 6 7 8 9 10 11 12 13 14 15 16 17 18 19 20 21 22 23 24 25 26 27 28 29 30 30 29 28 27 26 25 24 23 22 21 20 19 18 17 16 15 14 13 12 11 10 9 8 7 6 5 4 3 2 1 0 0 0 1 1 0 0 0 0 1 1 1.41421 2.23607 2.82843 3 2.82843 2.23607 1.41421 1 1 0 0 0 0 0 0 1 1 0 0 0 0 1 2 3 4 5 5.38516 5.83095 6.40312 7.07107 7.81025 8.544 8.94427 9 9.05539 9 9 8.94427 8.544 8.06226 7.61577 7.28011 7.07107 6.7082 6.32456 6.08276 5.83095 5.38516 5.09902 5 5 5 5 4.47214 4.12311 4 4 4 4 4 4.12311 4.47214 4.47214 4.12311 3.60555 3.16228 3 3 3 2.82843 2.23607 2 2 2 1 0 0 0 0 1 0 0 0 0 0 0 0 0 1 1 1 0 0 0 0 1 1 0 0 0 0 0 0 0 0 1 2 2 2 1.41421 1 1 1.41421 2.23607 2.82843 3.60555 4.47214 5.38516 6.08276 6 6 6.08276 6.32456 6.7082 7 7 7 7 7.07107 7 6 5 4 3 2 1 0 0 0 0 1 2 2.82843 3 2 1 0 0 1 0 0 0 0 0 1 1 0 0 1 0 0 0 0 1 1 0 1 1 0 0 0 0 0 0 0 0 1 0 0 0 0 1 0 0 1 0 0 0 1 1.41421 2 2 2.23607 2.82843 3.60555 3.16228 2.23607 1.41421 1 0 0 0 1 0 0 0 0 1 0 0 0 0 1 0 0 0 0 0 0 1 2 2.82843 3 2.23607 1.41421 1 1 1 1 0 0 1 0 0 1 1 1 1.41421 1.41421 1 1 0 0 0 0 1 0 0 0 1 2 2.23607 1.41421 1 1 1 1 1 0 0 0 0 0 0 0 1 0 0 1 0 0 0 0 0 0 0 1 1.41421 2.23607 2.82843 3.60555 4.47214 5 5.09902 5.38516 5.83095 6.40312 7.07107 7.81025 8.60233 9.43398 10.2956 11.1803 12.083 13 13 13 13.0384 12.7279 12.0416 11.4018 10.8167 10.2956 9.84886 9.48683 9 8 7 6 5 4 3 2 1 0 0 0 1 1 0 0 0 0 0 0 0 1 1.41421 1 1 0 0 0 1 1 1 1 1 1 1 0 0 0 0 0 0 0 0 0 0 1 1 1 0 0 1 1 0 0 0 1 1 1 1 1.41421 2.23607 2.82843 3 3 3 3.16228 3.60555 4.12311 4.47214 5 5.65685 6.40312 7.2111 8.06226 8 7 6 5 4 3 2 1 0 0 1 1.41421 1 1 1.41421 2.23607 3.16228 4.12311 5.09902 6.08276 7.07107 8.06226 8.94427 8.544 8.24621 8.06226 8 8 8.06226 8.24621 8.544 8.544 8.24621 8.06226 8 8 8.06226 8.24621 8.544 8.94427 8 7 6 5 4 3 2 1 0 0 1 2 3 3 3.16228 3 2 1 0 0 1 0
0 1 2 3 4 5 6 7 8 9 10 11 12 13 14 15 16 17 18 19 20 21 22 23 24 25 26 27 28 29 30 30.0167 29.0172 28.0179 27.0185 26.0192 25.02 24.0208 23.0217 22.0227 21.0238 20.025 19.0263 18.0278 17.0294 16.0312 15.0333 14.0357 13.0384 12.0416 11.0454 10.0499 9.05539 8.06226 7.07107 6.08276 5.09902 4.12311 3.16228 2.23607 1.41421 1 0 0 1 1 0 0 1 1 1.41421 2 2.23607 2.82843 3.60555 2.82843 2.23607 1.41421 1 0 0 0 1 1 1 1 1 1.41421 1.41421 1 1 1 0 1 2 2.82843 3.60555 4.12311 4.47214 5 5.65685 6.40312 7.2111 8.06226 8.94427 9.84886 10.0499 10 10 9.84886 9.43398 8.94427 8.544 8.24621 8.06226 7.61577 7.28011 7.07107 6.7082 6.32456 6.08276 6 6 6 5.83095 5.38516 5.09902 5 5 5 5 5 5.09902 5.38516 5.38516 5 4.47214 4.12311 4 4 4 3.60555 3.16228 3 3 2.23607 1.41421 1 1 1 1 1 0 0 1 1 1 0 0 1 1.41421 2 1.41421 1 0 0 0 1 1.41421 1 0 0 1 0 0 1 1 1.41421 1.41421 1 1 1 0 0 1 1.41421 2.23607 3.16228 4.12311 5.09902 5.09902 5 5 5.09902 5.38516 5.83095 6 6.08276 6.32456 6.7082 7 7 6 5 4 3 2 1 0 0 0 0 1 2 3 2.82843 2 1 0 1 0 0 1 0 0 0 1 1 0 1 0 0 1 1 1 1.41421 1 0 0 1 0 1 0 0 0 1 1 1 1 0 1 0 1 1 0 1 1 0 0 0 1 2 2.82843 3 3.16228 3.60555 4.24264 3.60555 2.82843 2.23607 1.41421 1 0 0 0 0 1 0 0 0 0 0 0 0 0 0 0 1 1 1 1 1.41421 2.23607 3.16228 3.60555 2.82843 2.23607 2 2 2 1 0 0 1 1 0 0 0 0 1 2 2 1.41421 1 1 0 0 1 1 0 0 1 1 1.41421 2 2 1 0 0 0 0 0 1 0 0 1 1 1.41421 1 1 1.41421 1 0 0 0 0 1 0 0 1 1.41421 2.23607 3.16228 4 4 4.12311 4.47214 5 5.65685 6.40312 7.2111 8.06226 8.94427 9.84886 10.7703 11.7047 12.0416 12 12 12.0416 12.0416 11.3137 10.6301 10 9.43398 8.94427 8.544 8.24621 8 7 6 5 4 3 2 1 0 0 0 1 1.41421 1 0 0 0 0 1 1 1.41421 1 1 1.41421 1 0 0 0 0 0 0 0 0 0 0 0 0 1 1 1 0 0 0 0 0 0 0 0 1 0 0 0 0 0 1 0 0 0 1 2 3 4 4 4 4.12311 4.47214 5 5.38516 5.83095 6.40312 7 7 7.07107 7.28011 7.07107 6.08276 5.09902 4.12311 3.16228 2.23607 1.41421 1 0 0 1 0 0 1 2 3 4 5 6 7 8 8.06226 7.61577 7.28011 7.07107 7 7 7.07107 7.28011 7.61577 7.61577 7.28011 7.07107 7 7 7.07107 7.28011 7.61577 8.06226 8 7 6 5 4 3 2 1 0 0 1 2 3 4 4 3 2 1 0 0 1 0
0 1 2 3 4 5 6 7 8 9 10 11 12 13 14 15 16 17 18 19 20 21 22 23 24 25 26 27 28 29 30 30.0666 29.0689 28.0713 27.074 26.0768 25.0799 24.0832 23.0868 22.0907 21.095 20.0998 19.105 18.1108 17.1172 16.1245 15.1327 14.1421 13.1529 12.1655 11.1803 10.198 9.21954 8.24621 7.28011 6.32456 5.38516 4.47214 3.60555 2.82843 2 1 0 0 1 1.41421 1 1 1.41421 2 2.23607 2.82843 3.16228 3.60555 2.82843 2.23607 1.41421 1 0 0 1 1 1 0 0 0 1 1.41421 2.23607 2 2 1 0 1 1.41421 2.23607 3 3.16228 3.60555 4.24264 5 5.83095 6.7082 7.61577 8.544 9.48683 10.2956 9.84886 9.48683 9.21954 9.05539 8.94427 8.544 8.24621 8.06226 8 8 8 7.61577 7.28011 7.07107 7 6.7082 6.32456 6.08276 6 6 6 6 6 6 6 6.08276 6.08276 6 5.83095 5.38516 5.09902 5 5 5 4.47214 4.12311 4 3.60555 2.82843 2.23607 2 2 2 1 0 0 0 1 2 1.41421 1 1 1.41421 2.23607 2.82843 2.23607 1.41421 1 1 1 1.41421 1 0 0 0 0 0 0 1 1 1 1 0 0 0 0 0 0 1 2 3 4 4.47214 4.12311 4 4 4.12311 4.47214 5 5 5.09902 5.38516 5.83095 6 6 6 5.09902 4.12311 3.16228 2.23607 1.41421 1 1 1 1 1.41421 2.23607 3.16228 2.23607 1.41421 1 0 1 0 1 0 0 0 1 1.41421 1 0 0 0 1 1.41421 1 1 1 1 1 0 0 0 0 0 1 1 1 1 1.41421 1 0 0 0 1 0 0 0 0 1 0 0 1 2 3 4 4.12311 4.47214 4.12311 3.16228 2.23607 1.41421 1 1 1 1 0 0 1 0 0 0 0 0 0 0 0 0 0 1 2 2 2 2.23607 2.82843 3.60555 3.60555 2.82843 2.23607 2 2 2 1 0 0 1 1 0 0 0 0 1 1.41421 2.23607 2.23607 2 1 0 0 1 1.41421 1 0 0 0 1 1 1 1 0 0 0 0 1 1.41421 1 1 1.41421 2 2.23607 2 2 2.23607 1.41421 1 1 1 0 0 0 0 0 1 2 3 3 3 3.16228 3.60555 4.24264 5 5.83095 6.7082 7.61577 8.544 9.48683 10.4403 10.7703 11.0454 11 11 11.0454 11.1803 10.6301 9.8995 9.21954 8.60233 8.06226 7.61577 7.28011 7.07107 7 6.08276 5.09902 4.12311 3.16228 2.23607 1.41421 1 0 0 1 2 1.41421 1 1 1 1 1.41421 2 1 0 0 1 0 0 0 0 0 1 0 0 0 0 0 0 1 1.41421 2 1.41421 1 1 1 0 0 1 0 0 0 0 1 1 1 1 1 0 1 0 1 2 3 4 5 5 5.09902 5.38516 5.83095 6.32456 6.32456 6.08276 6 6 6.08276 6.32456 6.7082 6.32456 5.38516 4.47214 3.60555 2.82843 2 1 0 0 0 0 0 1 2 3 4 5 6 7 7.81025 7.2111 6.7082 6.32456 6.08276 6 6 6.08276 6.32456 6.7082 6.7082 6.32456 6.08276 6 6 6.08276 6.32456 6.7082 7.2111 7.61577 6.7082 5.83095 5 4 3 2 1 0 0 1 2 3 4 4.12311 3.16228 2.23607 1.41421 1 1 1 0
0 1 2 3 4 5 6 7 8 9 10 11 12 13 14 15 16 17 18 19 20 21 22 23 24 25 26 27 28 29 30 30.1496 29.1548 28.1603 27.1662 26.1725 25.1794 24.1868 23.1948 22.2036 21.2132 20.2237 19.2354 18.2483 17.2627 16.2788 15.2971 14.3178 13.3417 12.3693 11.4018 10.4403 9.48683 8.544 7.61577 6.7082 5.83095 5 4 3 2 1 0 0 1 2 2 2 2.23607 2.82843 3.16228 3.60555 4.12311 3.16228 2.23607 1.41421 1 0 0 1 1.41421 1 0 0 1 0 0 1 1.41421 2.23607 2 1 0 0 1 2 2 2.23607 2.82843 3.60555 4.47214 5.38516 6.32456 7.28011 8.24621 9.21954 9.43398 8.94427 8.544 8.24621 8.06226 8 7.61577 7.28011 7.07107 7 7 7 7.07107 7 7 6.40312 5.83095 5.38516 5.09902 5 5 5 5.09902 5 5 5 5.09902 5.09902 5 5 5 5.09902 5.38516 5.83095 5.65685 5 4.47214 4.12311 4 3.60555 3.16228 3 2.23607 1.41421 1 0 0 1 1.41421 2.23607 2.23607 2 2 2.23607 2.82843 3.60555 2.82843 2.23607 2 2 2 1 0 0 0 0 1 1 1 1 0 0 0 0 0 0 0 0 0 1 2 3 4 3.60555 3.16228 3 3 3.16228 3.60555 4 4 4.12311 4.47214 5 5 5 5 5.09902 4.47214 3.60555 2.82843 2.23607 2 2 2 2 2.23607 2.82843 3 2 1 0 0 1 0 0 0 0 0 1 2 1 0 0 0 1 1 0 0 0 0 0 0 0 0 0 1 1 0 0 0 1 1.41421 1 1 1 0 0 1 0 0 1 1 1 1.41421 2.23607 3.16228 4 4 4.12311 4 3 2 1 0 0 0 1 0 0 0 0 0 0 0 0 1 0 0 0 0 1 2 3 3 3.16228 3.60555 4.12311 3.16228 2.23607 1.41421 1 1 1 1 1 1 1 1.41421 1 1 1 0 0 1 1.41421 2.23607 2 1 0 0 1 2 1.41421 1 0 0 0 0 0 0 0 1 1 1 1.41421 2.23607 2 2 2.23607 2.82843 3.16228 3 3 2.82843 2.23607 2 2 1 0 0 0 0 0 1 2 2.23607 2 2 2.23607 2.82843 3.60555 4.47214 5.38516 6.32456 7.28011 8.24621 9.21954 9.48683 9.84886 10.0499 10 10 10.0499 10.198 10 9.21954 8.48528 7.81025 7.2111 6.7082 6.32456 6.08276 6 6 5.38516 4.47214 3.60555 2.82843 2.23607 1.41421 1 1 1.41421 2.23607 2.23607 2 2 2 2 2.23607 2 1 0 0 1 0 1 0 0 0 1 1 0 0 0 1 1 1.41421 2.23607 2.82843 2.23607 1.41421 1 1 1 0 0 0 0 1 1 1.41421 2 2 2 1 0 1 0 1 2 3 4 5 6 6.08276 6.32456 6.40312 5.83095 5.38516 5.09902 5 5 5.09902 5.38516 5.83095 6.40312 5.83095 5 4.12311 3.16228 2.23607 1.41421 1 0 0 0 0 1 2 3 4 5 6 7 7.07107 6.40312 5.83095 5.38516 5.09902 5 5 5.09902 5.38516 5.83095 5.83095 5.38516 5.09902 5 5 5.09902 5.38516 5.83095 6.40312 7.07107 6.32456 5.38516 4.47214 3.60555 2.82843 2.23607 1.41421 1 0 1 2 3 4 4.47214 3.60555 2.82843 2.23607 2 2 1 0
